VERSION 0.7
FIELDS x y z
SIZE 4 4 4
TYPE F F F
COUNT 1 1 1
WIDTH 1190
HEIGHT 1
VIEWPOINT 0 0 0 1 0 0 0
POINTS 1190
DATA ascii
-99.82864518 199.96527853 -350.004334
-100.05261264 199.99111600 -349.95177942
-99.9724115 200.03973451 -349.62842987
-100.00062496 200.09236407 -350.05687724
-99.96709818 200.04601053 -350.15291428
-100.08387698 199.99111600 -349.95337265
-99.98844865 200.04930180 -349.8444294
-100.01619761 200.01339559 -350.05364979
-99.79715648 199.99287177 -350.08509022
-99.98704224 200.04879566 -349.6760402
-100.07177487 199.99111600 -350.03081171
-100.00420149 200.01238467 -350.14274037
-99.9580502 200.00162863 -349.56979435
-100.03563017 200.02432226 -350.21590417
-100.00356789 199.95846355 -350.01806974
-100.0295241 200.04539203 -349.68067589
-100.0289166 200.04567799 -349.79959545
-99.93674069 199.99727553 -350.00255419
-100.01509394 200.02699071 -349.48735879
-99.9637518 200.02834908 -350.15236309
-100.02910087 199.96554425 -349.79490235
-99.96684094 200.00266986 -350.23155899
-100.05080665 199.99816135 -349.73682195
-100.04118637 200.07106628 -350.22858199
-99.97453551 200.04145343 -349.6195915
-100.02089869 200.03018531 -350.029929
-100.03273641 199.96807071 -350.10819518
-99.88893951 200.00127280 -349.92763683
-99.98404179 200.04495574 -350.23155899
-100.00690866 200.06904407 -350.18491501
-99.95794321 200.00290493 -349.86052061
-100.04870409 200.02100932 -349.95895558
-99.99777957 199.99522072 -350.23155899
-100.03506318 199.96968766 -350.20541311
-100.12683807 199.99111600 -350.00423122
-99.98816441 200.04919951 -350.08402404
-99.96823317 200.04080246 -350.06012528
-99.83159062 199.92279229 -349.98661009
-99.84811002 199.94029999 -349.934203
-100.13971528 199.99111600 -349.99499389
-99.96111731 199.98834215 -350.1040367
-100.04672684 199.98514396 -349.809742
-100.04718976 200.02521726 -349.95811914
-100.03554132 199.97001993 -350.14316909
-100.04124094 200.07365355 -350.06463607
-100.04356279 199.97911341 -349.93549065
-99.98222462 200.08452872 -350.19266665
-100.0159603 200.09187222 -350.13031924
-100.0267352 199.96390026 -349.98824863
-100.01779082 199.96051783 -349.87270515
-99.96838065 199.97571758 -350.07774856
-100.03352317 200.04222844 -349.70827806
-99.99184334 199.96026712 -349.85757471
-100.03016081 200.05783626 -350.029929
-100.17957702 199.99111600 -350.03579812
-100.00464287 199.95855372 -349.87381885
-99.8160076 199.99768736 -349.9652891
-99.83978172 199.99151520 -349.95895226
-99.9677488 200.03336167 -350.23155899
-99.99064849 199.96439995 -349.46799588
-100.00426355 200.09294527 -350.049076
-100.04313415 200.06998444 -350.08918141
-100.00644257 200.05250634 -349.50597963
-100.03157778 200.15363859 -350.18491501
-100.05489428 199.99111600 -349.84855113
-99.93209615 199.99380016 -350.06769017
-100.03149284 199.96720651 -350.06814777
-100.17580583 199.95554732 -350.01061118
-100.01811538 199.96063463 -350.01487667
-100.03454613 200.02333589 -350.05960959
-100.05125765 200.00872609 -349.68027314
-100.13218944 199.96642646 -349.932457
-100.05106838 200.01098170 -349.50711208
-99.76516776 199.99343074 -350.07461387
-100.10159484 199.99111600 -350.10089155
-100.04708152 199.98589745 -350.19480895
-100.00146996 200.09254822 -350.03604516
-99.96033253 199.99052234 -350.03785227
-100.00742588 200.07738003 -350.029929
-99.86932792 199.97296303 -349.99692742
-100.07891213 199.99111600 -349.87828874
-99.97322481 200.02997240 -350.17389283
-100.03368301 200.02255053 -350.06379377
-100.01512937 200.09213747 -350.08171574
-100.01325696 199.95927571 -349.85698432
-99.88271592 199.99860055 -349.97772056
-100.04121852 199.97634007 -349.60933428
-100.05134526 200.00768202 -349.68790426
-100.03346521 199.96857718 -349.8398937
-100.02973353 199.96598390 -350.02180681
-99.91498252 200.00364618 -349.88315469
-100.05155764 200.00515095 -349.69922751
-100.1647017 199.97533058 -350.01473685
-99.89108367 199.99331502 -350.07678273
-100.00733007 200.05772291 -350.18491501
-99.96944692 200.03622777 -349.91025904
-99.97364095 200.04083171 -349.85921379
-99.95991429 199.99168424 -349.91549655
-100.05031901 200.01652188 -349.80232302
-100.04623576 200.04358876 -350.11747366
-100.04773544 200.03783000 -350.22039612
-100.04156525 199.97675026 -349.6778002
-99.9588682 200.01503778 -349.95713168
-99.99311604 200.08001686 -350.18491501
-99.95800374 200.00218284 -349.96144714
-100.01012369 199.95901305 -349.92127048
-99.91502252 200.00299332 -349.8953907
-99.8529803 199.97008982 -350.004334
-100.13513099 199.98193898 -349.96377373
-100.05037526 199.99576563 -349.64069668
-99.98448719 200.08627621 -350.15379372
-99.96980029 200.03660791 -350.13035459
-100.0412782 200.03167926 -350.14468758
-100.01408411 200.09247115 -350.04758928
-100.05119818 200.00943484 -349.88612732
-99.98699634 200.04877915 -349.78123228
-100.00658264 200.05251808 -349.58896686
-99.98144464 200.14043504 -350.19422032
-99.97234439 199.97154730 -349.76611697
-100.05108132 199.99968669 -349.93348335
-100.01044709 200.02678782 -349.48323246
-99.96772045 199.97666774 -349.59799262
-99.89868909 199.99426646 -350.05895074
-99.99121691 199.96037988 -349.71865145
-99.99804555 200.09180195 -350.03235807
-100.05012879 199.99439688 -349.82493182
-99.99372515 200.02901135 -349.505927
-99.96173396 199.98662907 -350.02652691
-99.96247767 200.02564155 -349.95122127
-99.97396611 200.04105770 -350.02144109
-99.96363456 199.98254811 -349.61096645
-99.99447606 199.96198518 -349.50222983
-100.03754558 200.07860077 -350.03190278
-100.00128073 200.17525201 -350.19357532
-99.98538805 199.96285512 -350.0172975
-99.9657528 199.97949957 -350.1349669
-99.95787849 200.00367690 -349.64838497
-100.09975219 199.99111600 -350.02069981
-99.95856217 199.99552130 -349.84037572
-99.95840346 199.99741454 -350.17125098
-99.96570733 200.03180428 -349.53490444
-100.04716201 200.05656161 -350.0842011
-99.97987128 199.96545175 -349.98823312
-100.0182457 199.96068153 -349.85684747
-99.95902181 199.99416360 -350.05475013
-100.00339668 200.05225101 -349.71229823
-99.85596213 199.98644631 -350.004334
-100.01785689 199.96054160 -350.01419454
-100.03320171 200.04250014 -350.13384535
-100.04361206 199.97917169 -349.77441147
-100.00347774 200.05225780 -349.76811253
-99.97292226 200.09309839 -350.21590874
-100.23820899 200.00989188 -350.10878602
-99.87030887 199.94294966 -349.94771587
-100.23820899 200.01321284 -350.10386629
-100.04845263 200.02170805 -349.90186388
-99.74907928 199.99118197 -350.11676052
-100.02217416 199.96209528 -349.52093332
-100.01908299 200.05030687 -350.19175718
-100.1483918 199.99111600 -350.0501033
-99.97999173 199.98582598 -350.23155899
-100.02762734 200.04628488 -350.20137791
-99.99065299 200.05009509 -350.03466928
-100.02417917 200.08923585 -350.13707226
-99.93265624 199.99767228 -349.9951183
-99.99993844 199.95880998 -349.75945637
-100.16726304 199.99111600 -350.01476492
-100.04724133 200.05471476 -350.17671304
-100.17613968 199.94817359 -349.95206244
-99.98627577 200.04851983 -350.00467075
-99.97491791 200.04171920 -349.59837633
-99.95882279 200.01478563 -349.54916565
-100.0128286 199.95923980 -350.04124453
-100.02017389 199.96137543 -350.14870261
-100.04707265 200.02554267 -349.54437602
-99.98022062 200.13363634 -350.19217973
-100.02536024 200.08847739 -350.14535377
-100.04888942 200.02049434 -349.9854094
-100.04961185 199.99152613 -350.06319107
-99.98733446 200.01725929 -350.09287823
-99.87615509 199.99204711 -350.10054594
-99.79079878 199.99574041 -350.03132568
-100.00839295 199.95886803 -349.76142852
-100.03127958 200.08467613 -350.15432387
-100.04931076 200.01932355 -349.60344411
-100.03810735 199.97265946 -349.66248745
-99.93389239 200.00576241 -349.84349216
-100.04584196 200.02114613 -350.23155899
-99.86423381 199.93336314 -349.95378649
-99.84401341 199.95458697 -349.934203
-99.95981534 199.99195912 -349.99326405
-100.04983211 199.99274929 -350.11304438
-100.03380709 200.14314033 -350.22358418
-100.06666247 199.99111600 -349.93274476
-100.01392879 200.05126799 -349.72486702
-99.98487457 200.12837571 -350.18491501
-100.11563913 199.96684910 -349.96474529
-99.84749469 199.99991019 -349.93840045
-99.97109188 199.97260602 -349.74543481
-100.05109177 199.99974475 -349.68949139
-100.00780407 200.09277798 -350.14335955
-99.83626718 199.93502969 -350.004334
-99.96114492 200.02280945 -349.70301438
-100.04864678 200.02116857 -350.09653082
-100.06574375 199.99111600 -349.96923291
-100.09493951 199.99111600 -349.9585166
-99.98492731 199.96307198 -349.62357967
-100.14251874 199.99111600 -349.94772716
-100.11969032 199.92904008 -349.99521856
-99.97929683 199.96572212 -349.65806069
-100.04723937 199.98623278 -349.72224895
-100.12520006 199.92903016 -350.021445
-99.96713344 199.97751257 -349.78864342
-100.01703339 200.05070920 -350.14076848
-99.8490707 199.99170095 -350.10703382
-100.00162905 200.04860865 -350.23155899
-100.11189842 199.94596208 -350.01614095
-99.99729925 199.95928504 -350.1846399
-100.04435613 199.98010762 -350.05521839
-100.02537802 200.04734367 -350.05293375
-99.95962011 199.99250149 -350.18008016
-100.04694845 200.04852800 -350.18302211
-99.99194444 200.16894729 -350.22858199
-99.99641036 200.06219808 -350.22858199
-99.85530131 199.98729971 -350.00183019
-100.04503042 200.02921811 -349.92758189
-100.05014442 199.99448372 -350.22871258
-100.05163615 200.00421538 -350.02803493
-99.88729369 199.99138558 -350.1129445
-100.03119595 200.05113413 -350.23155899
-100.02041912 200.04967793 -350.21780233
-100.045838 199.98325571 -350.03463349
-99.74128127 199.99241207 -350.06314877
-99.99345179 200.09090326 -350.18491501
-100.06072438 199.99111600 -350.09830682
-100.00415145 199.95851250 -349.53834267
-99.98868339 200.04938628 -349.72101025
-100.02675312 199.96391272 -349.71685857
-100.01494006 199.95949191 -349.8223897
-99.99441161 199.95980482 -349.776097
-99.94859804 199.99203542 -350.10076505
-99.98370157 200.04759344 -349.7366884
-99.98646144 200.04858665 -350.19346731
-100.00818495 200.15392831 -350.18491501
-99.96843197 200.03989024 -350.03836845
-100.04714345 200.05664675 -350.19255792
-99.95829909 200.01187755 -349.77197864
-99.98963855 200.04973002 -349.64290105
-100.00887144 200.01529846 -350.029929
-100.16647847 199.99111600 -350.01736504
-100.03785319 199.97904810 -350.23155899
-100.03233719 200.05487665 -350.029929
-100.178294 199.99111600 -349.99447599
-100.0129376 199.95924894 -350.03171076
-100.11991163 199.95724387 -349.932457
-99.99190702 200.01507660 -350.20806079
-100.04003622 199.97494136 -349.94709175
-100.05006152 200.02024284 -350.1929639
-100.16021798 199.92241289 -350.01147842
-99.98351353 200.04752577 -350.04828943
-100.13513043 199.93923837 -350.021445
-100.09306985 199.99111600 -350.03381592
-100.17543732 199.95834731 -350.01825291
-100.17787975 199.99111600 -350.10602335
-100.03517657 200.04083100 -350.14159019
-99.99772125 200.01321976 -350.0355995
-100.04069124 199.97571627 -349.55600889
-99.95809949 200.00104066 -349.54114233
-100.05128831 200.00836074 -349.8051246
-100.05158487 200.00482643 -349.59673527
-100.02374488 200.04811242 -349.81700124
-99.91793758 199.99339498 -350.07528413
-99.96697889 200.04691224 -350.22858199
-99.95856872 200.01337479 -349.86135207
-99.95761675 200.00808851 -349.90639582
-100.00021597 200.09227494 -350.14782823
-99.98064253 199.96508873 -350.04650332
-100.05161034 200.00262455 -349.93687855
-99.98878711 199.96125526 -350.2271976
-100.01298772 200.09253305 -350.17416924
-99.8445982 199.95482167 -349.934203
-99.97138777 199.98636958 -350.23155899
-100.04714186 200.04231798 -350.19357489
-100.04033886 200.03597017 -349.52242871
-100.12988206 199.99111600 -349.96403012
-100.01882142 199.99076175 -350.23155899
-99.96667281 200.03294633 -349.76279193
-99.958149 200.00044999 -349.67539248
-100.01436478 200.09306575 -350.22858199
-100.0069686 200.03958021 -349.505927
-99.96748368 200.04424163 -350.03273041
-99.98280218 199.99027485 -349.505927
-100.04942023 199.99086581 -349.86750174
-100.07330335 199.99111600 -350.01201116
-99.95244548 200.00395896 -349.87729258
-100.02690579 200.01279421 -349.48315011
-99.96201049 199.98586085 -349.9854366
-99.96436094 200.04554539 -350.21870442
-99.94556327 199.99780779 -349.99257857
-100.04631377 200.06045388 -350.1939021
-100.17770458 199.99111600 -350.07272702
-99.98506351 200.04808357 -349.59266064
-100.01440387 200.09173862 -350.23155899
-99.99600086 200.05163102 -350.12179575
-99.88970439 199.99356018 -350.07218781
-100.02565041 199.96334630 -350.05282637
-99.99144979 200.05038184 -350.0495347
-100.0174005 200.03369320 -350.029929
-100.00707127 200.09261948 -350.22858199
-99.98941515 199.96095966 -350.09895304
-99.9822814 199.96431735 -350.18074102
-100.00172531 200.05211090 -349.55806006
-99.86555101 199.97846517 -350.00325062
-100.02636881 200.07998039 -350.23155899
-99.99887313 200.01285189 -350.11792233
-99.99778895 200.01319814 -350.14571201
-99.8964012 199.99236103 -350.09466256
-99.96244155 199.98466333 -349.89119716
-99.95840024 199.99745301 -349.58298973
-100.02305826 200.04843563 -349.97118484
-100.02736229 200.06572254 -350.18491501
-99.93780099 199.99724202 -350.00318228
-99.95950778 200.01858934 -349.85909997
-100.0434819 200.06931047 -350.06601986
-100.02653649 200.02701075 -350.23155899
-100.14577874 199.99111600 -350.07595547
-99.86383002 199.94761181 -349.934203
-100.06762281 199.99111600 -349.95132742
-100.04697464 200.04908125 -350.07322498
-100.04968478 199.99193114 -349.60727455
-99.89479279 200.00282353 -349.89857302
-99.98385858 199.98257575 -349.45913934
-100.04147641 200.07319720 -350.0970476
-100.1117125 199.94737454 -349.94538957
-99.96795304 200.03446068 -350.12475519
-100.01441318 200.12892606 -350.22858199
-99.98141423 200.04623415 -350.10225526
-99.99937637 199.95891116 -349.65787039
-99.7587113 199.99364254 -350.03753874
-99.90299143 200.00267791 -349.90130226
-99.96422791 199.98169417 -350.00762732
-99.97778623 199.96694738 -349.67655564
-100.03676482 200.03948861 -349.61177421
-100.01600742 199.95987602 -349.66882039
-99.98118366 200.02120850 -350.1671789
-100.00418328 200.09294906 -350.21829828
-99.97509055 199.96922600 -349.91757496
-99.96286459 200.02646376 -349.93234225
-99.99997596 200.13264762 -350.22858199
-99.86890379 199.99394416 -350.06499127
-99.95776715 200.00892368 -350.18612049
-99.72560875 199.99130567 -350.0943818
-100.0404881 200.07511258 -350.18798286
-100.02764062 199.96452947 -350.00840219
-99.99390797 200.16050824 -350.18491501
-100.09924137 199.99111600 -349.95122544
-100.00279704 200.05220074 -349.97072558
-100.05111697 199.99988469 -350.17810761
-99.95227113 200.00084797 -349.93559915
-99.9923109 200.01494762 -350.11431978
-99.96963395 200.01497282 -349.49438899
-99.99860946 200.12636936 -350.22858199
-99.99248739 200.04914470 -349.505927
-100.09273313 199.99111600 -349.89260648
-99.96671765 200.05556359 -350.11767582
-100.03414698 200.04170120 -349.87322654
-100.03926776 200.02403004 -350.23155899
-99.95912074 200.01644010 -349.92334096
-100.04189093 200.08201950 -350.19697672
-99.96653496 200.04859497 -350.08058805
-100.03707801 200.02563965 -350.20686695
-100.04034265 200.03596471 -349.93215616
-100.03217902 200.04336451 -349.92800342
-100.02989191 199.96609397 -350.1574351
-99.9677957 199.97655945 -350.01756629
-100.11681907 199.99111600 -350.06243179
-99.96531801 199.98012531 -350.00409946
-99.82285177 199.99117035 -350.11697831
-100.0636914 199.99111600 -350.10126489
-99.97049951 200.07964145 -350.21475183
-100.04667468 200.04496372 -350.1326704
-100.03476448 199.96948008 -349.79674581
-99.83402524 199.99107314 -349.99591415
-100.04502922 199.98153753 -349.54000667
-99.992151 200.16644371 -350.22858199
-99.96829968 200.04049725 -350.16949306
-100.04183958 200.07249335 -350.22557565
-100.00813899 200.05231008 -349.90479295
-100.1677659 199.99111600 -349.97169415
-99.95973445 199.99218384 -349.50917515
-99.97414291 200.02870812 -350.04107736
-99.85672314 199.99318510 -350.07921774
-99.96265887 200.02602660 -349.61575393
-100.01689727 200.05073370 -349.6980775
-99.96689652 200.03321095 -350.03225509
-100.03936494 200.10111819 -350.20005782
-100.00734816 199.95878044 -349.82507607
-99.96398547 199.98204309 -349.6502431
-99.97387534 200.07564739 -350.10232852
-100.02369241 200.04813713 -350.20178251
-100.02267106 199.96227411 -349.92594378
-100.04474177 199.98092687 -350.0931272
-100.00271082 200.05219351 -350.16309332
-99.84554058 199.99546217 -350.03654057
-99.97967078 200.04502245 -349.74311527
-99.95925224 200.01717032 -349.98808165
-100.07163855 199.99111600 -350.06009032
-99.97671528 200.02588029 -350.03771626
-99.96230045 199.98505530 -350.17183843
-99.99563577 200.05160042 -349.95309176
-99.96565179 200.05271531 -350.21282641
-99.96400093 200.02887848 -350.12692995
-100.04187491 199.98709573 -349.49565743
-100.01429479 200.15468425 -350.18491501
-100.04216022 199.97745413 -349.99340365
-99.95886831 200.01503841 -349.70342446
-99.96267302 199.98402028 -349.62402877
-99.95765738 200.00631458 -349.72657405
-99.95765467 200.00634693 -350.18674858
-100.03074297 199.96668540 -349.59421369
-99.9614695 199.98736376 -350.17565956
-99.92305515 199.99779346 -349.99284724
-100.05174176 199.99111600 -349.87076678
-99.9736927 200.07536292 -350.14335658
-100.00945367 199.95895689 -350.056441
-100.01316465 200.01273462 -350.1209089
-100.02635209 200.01732300 -350.08036581
-99.91914318 199.99613911 -350.02385315
-100.12289152 199.92597142 -349.96819372
-100.04207497 200.03347156 -350.04380701
-100.05113341 200.01020668 -349.90119493
-99.99256142 200.09044239 -350.11666529
-99.99927869 199.95892874 -350.06638461
-100.00131828 200.03359174 -349.49103951
-100.02193951 200.01270676 -350.23155899
-100.15651943 199.98032178 -350.00141028
-100.02563015 200.08830406 -350.08180413
-100.03681932 200.03944255 -349.61816538
-100.00679298 200.09282575 -350.07992016
-100.04994486 199.99337544 -350.22471257
-99.95816729 200.01114566 -349.91051665
-100.05164221 200.00414317 -349.61081348
-100.03908781 200.03752523 -349.57202155
-100.02326438 199.99379313 -349.505927
-100.06725721 199.99111600 -349.87971227
-99.98255526 200.04702717 -350.20077358
-100.12216174 199.92653141 -349.96780396
-99.86039972 199.99205028 -350.10048656
-100.05093034 200.01262680 -350.12779502
-100.09509356 199.99111600 -349.88829852
-99.98558761 199.96276120 -350.09745934
-100.17393913 199.96242762 -349.94820444
-99.97911185 200.02283456 -349.505927
-99.98394082 200.11418267 -350.22858199
-100.03603129 199.97036043 -349.68732603
-99.88568951 199.99766373 -349.99527866
-99.9760525 200.02660889 -350.11576371
-99.99881407 199.95901237 -349.54287192
-99.8633281 199.99549547 -350.03591648
-100.11653536 199.93315145 -350.00280923
-99.96360107 200.04132479 -350.19688091
-100.17313661 199.96436526 -349.93279514
-99.95886554 200.01502300 -349.96055149
-99.78151829 199.99525260 -350.03873594
-100.00589151 200.00627600 -349.46097749
-100.05119755 200.00944234 -349.7822199
-100.04738473 200.02467547 -350.13876905
-99.99860272 199.96376465 -350.23155899
-100.11825545 199.96400913 -350.021445
-100.03964225 199.97447529 -349.91061976
-99.93378968 199.99913091 -349.96778053
-99.96075726 199.98934242 -349.67775871
-99.96177872 200.02619056 -350.22858199
-99.87044405 199.94327596 -349.9840382
-100.05092381 200.01270456 -349.62199116
-100.03907183 199.97380046 -350.16716364
-99.99319072 200.05100835 -349.87843293
-100.02996962 199.96614797 -349.82626175
-100.16083466 199.99111600 -350.0972997
-100.02487124 200.08879142 -350.1197094
-99.98530753 200.16189106 -350.1880469
-99.81483099 199.99160913 -350.10875468
-100.11130753 199.95073274 -350.00407883
-99.97681927 199.96776474 -349.54393635
-99.97292404 200.03055519 -350.07397719
-99.9763825 200.02624612 -350.11422068
-99.96704537 200.04625284 -350.11205566
-100.09200498 199.99111600 -350.08259585
-99.85917047 199.97674811 -350.004334
-100.00800874 200.05233352 -350.19879315
-99.96065422 199.98962866 -350.16159725
-100.19321778 199.99111600 -350.05572013
-100.02166783 200.01490599 -350.19159865
-100.03937458 200.03728285 -349.86737579
-100.11194992 199.95561379 -349.947676
-100.06456457 199.99111600 -350.01892062
-100.03656355 199.97083309 -349.76490864
-99.8288688 199.92334276 -350.00090965
-99.96072666 200.02192064 -350.16133122
-100.03075446 200.08501335 -350.12313731
-100.04519106 200.02898691 -350.05800167
-99.99121161 200.04823737 -350.23155899
-99.80501212 199.94740060 -349.98995719
-100.12308006 199.92582675 -349.98336329
-100.0318352 200.04365510 -349.56684446
-100.01350527 200.02926154 -349.48828586
-100.03774047 200.11340063 -350.20549741
-99.97367089 199.97042602 -349.52076653
-99.95819821 199.99986297 -350.10856512
-99.85696911 199.93240400 -349.934203
-100.04444758 199.99982708 -349.505927
-99.7452187 199.99269003 -350.03906653
-100.04640375 199.98445760 -349.87182554
-99.85255539 199.93535196 -350.004334
-100.17440808 199.93988961 -349.95855737
-100.05535482 199.99111600 -349.96607857
-99.96804942 199.97619428 -349.72858706
-100.01119004 199.95910244 -350.0791019
-100.00532092 200.09289531 -350.13051358
-99.96496326 199.98063586 -349.75253003
-99.86283561 199.97957450 -350.004334
-100.04674486 200.05847577 -350.22245029
-99.9520436 199.99226441 -350.09647342
-100.17522575 199.95932115 -349.96421391
-99.9657696 200.03187793 -349.95792866
-99.97655428 200.07937065 -350.14318316
-100.02764924 200.17525201 -350.22207936
-99.97129931 200.03841893 -349.79745017
-100.23820899 200.01498676 -350.10436587
-99.98549868 200.01843797 -350.22500588
-99.96816446 200.06364597 -350.14800125
-99.87019131 199.97087871 -349.96677208
-99.95231382 199.99532585 -350.03909543
-100.04134697 199.97649202 -350.08973972
-99.92682144 199.99235860 -350.09470798
-100.02110841 200.01461733 -350.20671677
-99.94798889 199.99265272 -350.08919566
-99.99074687 200.04140621 -350.23155899
-100.0122244 199.95918919 -349.57827677
-100.18803791 199.99111600 -350.09655671
-100.04040602 200.03032124 -350.14438458
-100.001858 200.05212202 -349.86643861
-99.96618703 199.97887462 -349.7987065
-99.99907671 199.95896510 -349.96321463
-100.10190436 199.99111600 -349.94062711
-100.01816979 200.05050467 -350.19151782
-99.96918346 200.03591613 -350.17254014
-99.98730828 200.15007638 -350.22858199
-99.94939858 199.99366756 -350.07017529
-99.97162785 200.08590870 -350.22651948
-100.03819442 200.02687772 -350.15776537
-100.02731134 200.04643362 -350.00845647
-99.97559839 200.04219213 -350.12479934
-99.96993772 200.03680832 -349.65798721
-99.76779989 199.99428415 -350.03666163
-100.03753265 199.97197957 -349.8423207
-100.13896444 199.99111600 -349.9421385
-100.02598363 199.96346622 -349.82758625
-99.98539353 199.96285254 -350.15394881
-100.01209126 200.05159872 -349.75227107
-100.03153123 200.04391202 -349.78798643
-99.98604651 200.05409912 -350.22858199
-100.03073206 199.96667782 -349.74732661
-99.95799868 200.01020939 -349.5589874
-99.94651915 200.00681422 -349.82377896
-99.99457782 200.17525201 -350.19127962
-100.00555644 200.01232066 -350.19525012
-99.97404994 200.04111596 -350.21521029
-100.04720006 200.05384305 -350.08659915
-99.96644556 199.97850255 -349.65208558
-100.11478124 199.99111600 -349.92305687
-99.96413816 200.02917009 -350.20920054
-99.9589031 200.01523155 -350.03562654
-100.00162499 200.01250640 -350.2194627
-100.03338196 200.04234779 -349.72488673
-99.97304771 200.09379518 -350.18689312
-99.98057412 200.04565028 -350.1969637
-99.98428242 199.96337552 -349.53996286
-100.11490472 199.96188999 -349.932457
-99.86662448 199.97706614 -349.94868242
-99.98616308 200.04847928 -349.84073511
-100.03664911 199.97093431 -349.96412101
-99.94817441 199.99470078 -350.0508105
-100.01795062 200.00683617 -349.46963682
-100.03327315 199.99125354 -349.46972568
-99.96514466 199.98037479 -349.52550546
-100.05453887 199.99111600 -350.04181401
-100.01112196 199.95909681 -349.573732
-99.95785675 200.00393629 -349.86950112
-99.95756244 200.00744715 -349.92260907
-99.99561886 200.07533768 -350.22858199
-99.96339101 200.01794233 -349.50159332
-99.99335151 199.96596225 -350.23155899
-99.96122037 200.02296978 -349.50795554
-99.9966115 199.95940884 -349.80076624
-100.04788492 200.02328559 -349.77179654
-100.05122073 200.00916603 -350.09635998
-99.73039588 199.99164362 -350.07772786
-100.05092025 200.01274696 -349.68823194
-99.95968265 200.01956037 -349.90988297
-100.02964398 199.96592167 -350.13658523
-99.99248256 200.05075351 -349.76478798
-100.00455447 200.09293152 -350.16069624
-100.14064306 199.93051254 -349.932457
-99.82004004 199.92738498 -349.98877649
-99.86759104 199.99597612 -350.02690809
-100.01480692 199.95944400 -350.05024209
-100.05529421 199.99111600 -349.97680321
-100.0419625 200.03257784 -350.23155899
-99.95924344 200.01712146 -349.7331991
-99.78507015 199.99385570 -350.06664924
-99.9221897 200.00374109 -349.88137591
-100.03659912 200.07964095 -350.12979593
-100.0504024 200.01629016 -349.8758243
-99.98863747 199.96132569 -349.70249074
-99.95808942 200.00116081 -350.1865512
-99.722922 199.99839469 -350.09379529
-99.97673876 200.05610808 -350.22858199
-100.19323074 199.99111600 -350.05707939
-100.04385206 200.06859310 -350.21329123
-99.96659189 200.03285061 -349.51151979
-100.00520661 199.99619554 -349.45150889
-100.04953013 199.99109927 -350.18105456
-100.11562803 199.96682229 -349.95194891
-99.97832878 199.96648878 -349.76961244
-100.00493269 200.01235012 -350.03600695
-100.14573298 199.93789929 -350.021445
-99.95803576 200.00180090 -349.72882928
-99.97109227 200.03817403 -350.04538617
-99.84099181 199.99809955 -349.9871104
-100.0273747 199.96434467 -350.13230277
-99.99706279 200.05172004 -349.95641993
-100.05152006 200.00559878 -350.12445611
-100.03755361 199.98899538 -350.23155899
-99.91242366 200.00077236 -349.93701627
-99.98333317 199.99085510 -349.46086392
-99.96442799 199.98140621 -350.13243515
-100.02016277 199.96137143 -349.51048786
-100.0150703 200.05106253 -349.556523
-99.96916701 200.01156315 -349.505927
-99.96062949 199.98969736 -349.84057589
-100.03140058 200.05071845 -350.18491501
-100.02283331 199.96240692 -349.505927
-100.040644 200.06900449 -350.22858199
-99.95843925 199.99698759 -349.67767133
-99.98174114 200.14208192 -350.19341688
-100.11144521 199.95177892 -350.0154179
-99.9728776 200.04028585 -350.20765578
-100.0136521 199.95930886 -349.53399129
-99.77401312 199.99226839 -350.09639868
-99.95831688 199.99844743 -349.53828214
-99.95849583 199.99631270 -349.55531989
-99.98239227 199.96426517 -349.78438897
-99.90822385 199.99868648 -349.97611004
-100.03393401 199.96890296 -350.01207062
-100.09415217 199.99111600 -349.91887413
-99.83897336 199.99152511 -350.11032944
-99.99908389 200.05188947 -350.11020734
-100.03104469 200.08135137 -350.18491501
-99.91977521 200.00067594 -349.93882333
-99.77271009 199.99463078 -350.03435809
-99.82683881 199.98936136 -350.00131115
-99.95975555 200.01985704 -350.00591427
-100.12938606 199.92162539 -350.00567139
-100.01683693 200.05074456 -349.81431981
-100.04021093 200.07564975 -350.20819381
-100.03563012 200.02653437 -349.50424298
-99.86003698 199.97985844 -349.934203
-99.95924524 200.01713147 -350.08054109
-100.00200542 199.95843792 -350.01387749
-99.97900147 200.04455728 -349.83295197
-100.03140726 199.96714704 -349.87802389
-100.0147343 199.95941786 -350.01751681
-100.00508296 199.95859056 -349.93847558
-100.0453776 200.04090057 -350.04675094
-100.04637067 199.98438731 -349.68774341
-100.02437504 199.96288733 -349.86762538
-99.77701334 199.99327097 -350.07760827
-100.00517634 200.09290214 -350.14583103
-99.99787069 200.04322269 -349.505927
-100.12997884 199.93495701 -349.932457
-100.0064286 199.95870352 -349.57708187
-100.06628099 199.99111600 -350.07209753
-100.18912912 199.99111600 -350.10889081
-100.04681837 200.05813844 -350.06251832
-99.98181004 199.99443671 -349.505927
-99.76403801 199.99251954 -350.09169172
-100.13698554 199.96815193 -350.021445
-99.78985383 199.99161727 -350.10860213
-100.06092792 199.99111600 -349.88330891
-100.02574318 199.99964128 -349.505927
-100.05108921 199.99973053 -349.70744785
-99.96661319 200.05335716 -350.1019791
-100.00612288 199.95867767 -350.12349955
-99.82909799 199.99743354 -349.99959292
-100.20898566 199.99111600 -350.10878794
-100.05036754 199.99572276 -349.67247551
-99.9821042 200.04671369 -349.87905886
-99.97929111 200.04475858 -349.62884089
-100.11960051 199.92915712 -349.99133828
-99.97613112 199.99194706 -349.473902
-100.05162655 200.00432978 -349.93723457
-100.14489087 199.98065034 -350.021445
-100.20087195 199.99111600 -350.1000658
-99.95762548 200.00813701 -349.7761813
-99.99708617 199.95932340 -349.51844942
-100.02559458 200.09564922 -350.22858199
-99.97249204 199.97142249 -350.15852685
-100.20362517 199.99111600 -350.09460361
-100.01534607 200.05101290 -350.19467441
-99.9851686 200.04812139 -349.7662949
-100.04778316 199.98738802 -349.97054022
-99.95964412 199.99243480 -350.0537085
-99.92140175 199.99984476 -349.95440153
-100.2335147 199.99111600 -350.09400676
-100.14991211 199.97139819 -349.932457
-100.04034387 200.09371662 -350.20330046
-99.98213955 200.01513390 -350.23155899
-100.1215884 199.99111600 -350.03447908
-99.93390825 200.00269225 -349.9010334
-99.85903512 199.94536842 -349.934203
-99.99216212 200.05063819 -349.74586169
-99.99996101 199.95880592 -349.90629601
-99.95971931 199.99222590 -349.78855557
-99.97427642 200.10061993 -350.21768156
-99.87219444 200.00165387 -349.90653513
-100.02355422 199.96259193 -349.99524885
-100.04445063 200.03005255 -350.01700299
-99.84017784 199.99176862 -350.10576551
-100.05157595 200.00243357 -349.82838279
-100.09534741 199.99111600 -350.08864271
-100.0466423 200.02673851 -349.55781211
-100.09930227 199.99111600 -350.04816225
-100.05447548 199.99111600 -349.8911004
-100.05149688 200.00587511 -350.18976889
-100.00094872 199.95862813 -350.19897082
-100.00976677 199.95898313 -350.17596774
-100.09307387 199.99111600 -349.98034449
-99.95935802 200.01775771 -349.88169108
-99.98957877 199.96088264 -349.59945702
-99.95958434 200.01901446 -350.21487174
-100.12389808 199.93962084 -349.932457
-100.20723294 199.99111600 -350.10879227
-99.9642229 200.02935015 -350.17850542
-100.14341891 199.99111600 -349.95823044
-100.00485528 200.12788510 -350.22858199
-100.04623013 200.02749149 -350.15696232
-100.00789265 199.95882603 -349.92101291
-99.99994941 200.05196202 -349.59734545
-100.01728788 200.05066340 -349.77245757
-100.14516363 199.99111600 -350.08470932
-99.73719391 199.99212352 -350.06763902
-99.99436867 199.95981255 -350.15496894
-99.98469644 200.04795147 -349.910387
-100.0513613 200.00749079 -350.10846146
-99.98411153 200.00577640 -350.23155899
-99.97984929 200.13157384 -350.21769648
-99.9854304 200.04691887 -350.23155899
-100.1698445 199.93598066 -349.932457
-100.12567506 199.99111600 -350.04771653
-99.96094706 200.02658337 -350.19460293
-99.98205796 200.04668155 -349.64756969
-100.03730378 199.97170881 -350.17989099
-100.04528072 199.98207182 -349.60631565
-99.99456297 200.05150219 -349.70055247
-100.03261557 200.02157927 -350.09044884
-100.00142377 200.12843378 -350.22858199
-100.00835271 200.01868322 -349.47336774
-100.04482809 200.05981206 -350.19332576
-99.86464597 199.97586546 -349.934203
-100.01793135 200.05054758 -349.95083153
-100.11149057 199.94906063 -350.01779983
-100.05013164 199.99441273 -349.72499511
-100.02030389 200.04973217 -349.67008267
-100.04234273 199.97767004 -349.90405326
-100.08495766 199.99111600 -350.10804984
-99.9670607 200.04618250 -350.06718534
-100.1559321 199.97649513 -349.932457
-100.01095974 199.95908314 -349.8247426
-100.1346727 199.99111600 -349.9833228
-99.89793646 199.99555338 -350.03483106
-99.97055844 200.03754256 -350.19259931
-99.78750062 199.99242537 -350.09345664
-100.19873848 199.99111600 -350.03815493
-100.06894604 199.99111600 -349.93616295
-99.96932923 199.97435239 -349.74086502
-99.97517027 200.10558470 -350.22116897
-100.01459 200.02069385 -349.48064289
-100.00805649 200.02103567 -350.23155899
-99.96357715 200.02797794 -350.12369345
-99.97810504 200.08078131 -350.17159415
-100.04063834 199.97565370 -349.51265275
-100.04992201 199.99324855 -349.8802318
-100.0507068 200.01529083 -350.13111162
-100.02011889 200.08356550 -350.18491501
-99.98966896 199.97340098 -349.44898675
-99.95093425 199.99675300 -350.01234768
-99.80323548 199.99132610 -350.11405922
-99.722922 200.01486222 -350.1131667
-99.98305853 200.04736202 -349.5690004
-99.98089013 199.96497220 -349.54110275
-100.04271049 199.97810511 -349.89311251
-100.11193891 199.94565441 -349.99628462
-100.04715014 200.05278859 -350.07780182
-100.17294519 199.93635756 -349.99425291
-100.02012284 199.96135706 -350.22816352
-99.99140448 200.08984543 -350.10867593
-99.97213643 199.97693389 -349.50332168
-99.98845574 200.08832392 -350.13949936
-100.04063054 200.07483652 -350.15872113
-100.17555054 199.95748708 -350.00890758
-100.15248894 199.99111600 -349.99560284
-99.96181052 199.98641638 -349.65841004
-99.97199548 199.97184222 -349.6885065
-99.97871156 200.08133304 -350.0586711
-99.95855392 199.99561968 -350.18186561
-100.0423383 200.03309258 -349.60927267
-100.01341225 200.05136096 -349.69384774
-100.04919885 200.01963452 -349.82913463
-99.84110064 199.99945880 -349.93894232
-99.97270682 200.04008384 -350.06775931
-99.96462966 200.04703797 -350.2123559
-100.0063507 200.05249864 -349.64581945
-100.01645349 200.05081358 -349.7187461
-100.06699234 199.99111600 -349.9077782
-100.013358 199.95928418 -350.06892903
-99.99610268 200.09137854 -350.08420613
-100.00114255 200.05206204 -350.02122144
-100.0452405 199.98198637 -349.62890529
-99.97631768 200.04269204 -349.96310151
-100.00583485 200.05401629 -350.029929
-99.98474769 200.15665395 -350.18491501
-99.83609151 199.98879557 -349.934203
-100.02281507 199.96232593 -349.58465303
-100.04022379 200.03613577 -349.93318829
-99.97127536 200.03839060 -349.77218019
-99.88005828 199.99367579 -350.07002112
-99.96666443 200.05443956 -350.1638956
-100.05099333 200.01187613 -349.87700387
-99.97675828 200.04299826 -349.66618129
-99.87489565 199.99554397 -350.03500738
-99.98036828 200.00036980 -350.23155899
-100.08434456 199.99111600 -349.95654667
-100.03375076 199.96877561 -350.0282907
-100.04180292 200.03386310 -349.53342156
-100.08718149 199.99111600 -350.07687091
-99.99250877 200.06771699 -350.18491501
-100.04824167 200.02229427 -350.08768401
-99.99207133 199.96022608 -349.50672337
-100.05000309 199.99369884 -349.62937466
-99.9583586 199.99794969 -350.03943416
-99.96656079 200.05225050 -350.21253651
-99.86891985 199.93959681 -349.99825741
-99.84061508 199.99513579 -350.04265761
-99.98291286 200.02009824 -350.19300057
-100.04286611 200.07050389 -350.22642172
-99.98657823 200.09363589 -350.22858199
-99.85541464 199.95995388 -349.934203
-100.04980431 199.99259493 -349.52092183
-99.96120358 200.02293411 -349.74047538
-100.03192017 199.96750347 -349.62086352
-99.96472533 199.98097829 -349.51456602
-99.91018945 199.99873230 -349.97525131
-99.95866136 200.01388920 -349.92481854
-100.02750735 200.13658682 -350.18491501
-100.04458133 199.99138493 -349.50102167
-100.02444367 199.96291202 -350.15497019
-99.96451275 199.98128424 -350.21381187
-100.14554875 199.99111600 -349.94778529
-100.03462901 199.96938594 -349.75875794
-100.00719549 200.05247989 -350.10246647
-99.92637349 199.99246229 -350.0927646
-100.09436165 199.99111600 -349.94592542
-100.11812464 199.97010413 -349.99166312
-100.04397657 199.97960292 -350.22547054
-100.0124869 200.05152751 -349.87052204
-100.01034731 200.05191261 -350.16657409
-100.05125164 200.00063255 -349.9336341
-99.99434759 200.05142468 -349.89001986
-100.02496807 200.04753665 -350.00824149
-100.2075096 199.99111600 -350.06034497
-100.02316528 200.04838526 -349.63826739
-99.97099414 200.03429464 -350.10244836
-100.03088343 200.04340788 -350.23155899
-99.99815089 200.06938431 -350.18491501
-99.99713322 200.05172595 -349.94010168
-100.04407803 200.03682961 -350.07467372
-99.93492448 199.99169998 -350.10705198
-100.00960962 200.17525201 -350.2080441
-100.02495982 199.96309777 -349.666179
-100.03601354 199.98579185 -350.23155899
-99.78848223 199.99574421 -350.02684814
-99.97631441 199.96819150 -349.86205851
-100.01373281 200.16345887 -350.22858199
-100.01878143 200.01395868 -350.10527482
-100.01524172 200.05103168 -349.71767398
-99.87343514 199.95641600 -349.9632723
-99.9651664 200.05001925 -350.22412388
-100.04421599 199.97988616 -349.86019851
-99.98566824 200.08688562 -350.15909125
-99.85408933 200.00037574 -349.91887242
-100.01192404 199.95916398 -349.73309769
-99.98510996 199.96298602 -349.9289777
-100.04192116 200.03369293 -350.11917601
-99.96816712 200.03471391 -350.16322575
-100.00305293 200.01243894 -350.09660155
-100.23469672 199.99111600 -350.05548486
-99.82342307 199.98794644 -349.9809836
-99.97956488 200.02274768 -350.11662813
-100.01135084 199.98687238 -349.44397182
-100.12722534 199.94897119 -349.932457
-100.04822056 199.98831721 -349.72053876
-100.04071433 200.09091566 -350.21396702
-99.9659651 199.97919402 -349.63592963
-100.04613082 200.06129336 -350.21157043
-99.87247944 199.94915540 -349.99806827
-100.04025643 200.03008833 -350.22104184
-99.95823447 200.01151872 -349.5399888
-99.97218112 199.97168531 -349.68968504
-99.98634286 199.96240572 -349.51570434
-99.99796613 200.01314156 -350.12155142
-99.87282093 199.96179423 -349.9743124
-100.00155806 200.13131680 -350.18491501
-100.05157503 200.00242851 -349.8332154
-100.01659045 199.96008584 -349.52174998
-99.97245108 200.03978134 -350.09832676
-99.97533562 200.07792174 -350.19245597
-99.98974618 200.04976875 -350.18437494
-99.97132182 199.97241166 -349.63275061
-100.18350351 199.99111600 -350.06788222
-100.02185878 200.04900025 -350.09812761
-100.20911282 199.99111600 -350.02093668
-99.87274781 199.95119428 -349.9762697
-99.86045384 199.99437873 -350.05684649
-100.11925891 199.99111600 -349.91374216
-99.97419732 200.02864830 -350.05381366
-100.11159673 199.95293017 -349.96335208
-99.98923029 200.14459727 -350.18491501
-100.0105809 200.05473504 -350.22858199
-99.96276416 200.02625034 -349.90560978
-100.04840994 200.03273021 -350.2250742
-100.03289122 200.08364117 -350.1901353
-100.04678105 199.98525914 -349.71618605
-99.84806073 199.92324565 -349.9758812
-99.98366826 200.04758145 -350.02828291
-100.05077986 200.01442008 -350.11554388
-100.02677394 200.04668658 -349.91215304
-100.01725774 200.09145803 -350.09552212
-100.04680582 200.02628411 -349.9035645
-99.99478384 199.95973782 -350.10567113
-99.94958847 199.99912580 -349.96787632
-100.00575189 200.09914932 -350.22858199
-100.05101359 200.01163465 -349.7291508
-100.00515909 200.01233943 -350.05478668
-100.01067718 200.05185324 -349.96583465
-99.93314007 199.99446546 -350.05522101
-99.98880247 199.96124803 -350.19230218
-100.02005903 200.05871238 -350.18491501
-100.01824415 200.07415422 -350.23155899
-99.81434073 199.98178758 -349.99638149
-99.97592017 200.04241577 -349.77589292
-99.80766392 199.94099593 -349.96789674
-100.12488786 199.92443955 -350.00730313
-100.0767292 199.99111600 -349.99212472
-100.0680749 199.99111600 -350.08065646
-100.0446541 200.02975970 -349.68634372
-99.97680265 200.08760013 -350.22858199
-99.80976553 199.93748596 -349.98564593
-100.00293202 200.01244465 -350.14075645
-100.00196412 199.95844536 -349.54932756
-99.88264427 199.99656208 -350.01592582
-99.98412848 199.96344797 -349.77968446
-99.96435 200.02962025 -349.51493287
-99.98507745 200.01870843 -350.0914626
-99.93739183 199.99621267 -350.02247449
-99.79771264 199.99143751 -350.11197126
-100.10368088 199.99111600 -349.93130334
-99.87330663 199.95543963 -349.95700989
-100.1525977 199.91923840 -350.01309866
-100.05077954 200.01442387 -349.68620362
-100.04327332 199.97877095 -350.10762933
-99.92706552 199.99588469 -350.02862163
-100.03879077 200.03777629 -350.17508274
-99.86449734 199.93370659 -349.942782
-100.04835045 199.98859316 -349.58065078
-100.02253224 200.04868324 -350.20337469
-100.0393464 200.02867138 -350.18871611
-99.99801759 199.95915574 -349.59834866
-99.96077044 200.02076966 -349.505927
-100.02831661 199.96499924 -349.87532032
-100.2107334 199.99111600 -350.02052087
-99.90478469 199.99485481 -350.04792378
-100.15426422 199.95271759 -350.021445
-100.04350066 199.97903991 -349.71428421
-99.96580009 199.97943150 -350.18374425
-100.04797388 200.02303838 -350.06038518
-100.04507209 200.03994355 -350.12342771
-100.02060575 200.15717989 -350.22858199
-99.99233531 199.96017856 -349.6608602
-100.02260269 199.96224950 -349.6782826
-100.12240993 199.92634096 -349.95960124
-100.01382216 199.95932309 -349.75879808
-100.04613982 199.98389689 -349.60635629
-100.0255082 199.96329512 -349.6492382
-100.0454378 200.06447338 -350.14566554
-99.86457649 199.99957090 -349.95953407
-99.95818352 200.00003822 -349.78513986
-100.0489625 199.98989341 -350.05448684
-99.96636874 199.97861311 -350.07570797
-100.04779153 199.98740579 -350.14203844
-99.99491784 200.05154023 -349.95835068
-100.0463911 200.04407537 -350.06432258
-99.96684436 200.05824000 -350.08206835
-100.0500102 200.02063085 -350.19060618
-99.76941123 199.99439790 -350.02385591
-99.98064134 200.04569699 -350.15600943
-100.04136159 200.07396953 -350.22858199
-100.00602115 199.95866914 -350.22759985
-100.10385507 199.99111600 -350.00118824
-99.96368096 200.04176851 -350.21852553
-99.98342094 200.12663079 -350.18491501
-100.00053283 200.05201093 -349.85541751
-100.05017455 199.99465100 -349.96888698
-100.03212246 200.08413486 -350.05899945
-100.0170603 200.08538718 -350.029929
-100.02678281 200.04668241 -349.56528616
-99.958589 199.99536599 -350.19746844
-99.86145695 200.00065478 -349.93921994
-99.98965517 199.96084669 -349.63695831
-100.0485861 199.98909379 -350.02894456
-100.02513533 200.01669517 -350.06907923
-100.03888539 199.97357990 -349.73471233
-100.04363214 199.97919546 -349.74476436
-100.04733668 200.02480900 -349.97355393
-100.04304211 200.07016280 -350.13775775
-99.96611878 199.97897285 -349.77329914
-99.97473988 199.96952242 -350.02300421
-99.99749871 199.96165783 -349.48756395
-100.04678165 200.02635129 -349.57466452
-99.96758406 199.97686403 -350.06105842
-100.03899597 199.98949007 -349.48647754
-99.96655381 200.05210294 -350.0943863
-100.04320996 200.07204658 -350.21746194
-99.962835 199.98369883 -349.65417929
-99.97354648 200.00638804 -349.483245
-100.01230979 200.05155939 -349.98820144
-100.05134861 200.00764212 -350.16262334
-100.00157374 199.95851563 -349.73371624
-99.98834358 200.04926399 -350.17395615
-100.16099193 199.92810832 -350.021445
-100.04336401 200.03492692 -350.10052374
-99.86108207 199.98312211 -350.0008895
-99.97961742 200.08215706 -350.0904189
-99.98217814 199.96436596 -350.08241052
-100.11595778 199.99111600 -349.96389323
-99.97364935 199.97044423 -349.93172663
-99.99416916 199.95984847 -350.04577649
-100.00525181 199.95860465 -350.0919633
-99.97559975 199.96879559 -349.72544725
-100.04688609 200.04721086 -350.12643532
-100.05094763 200.01242071 -349.73783874
-99.97013406 200.03704057 -350.13608928
-99.99584127 200.05161764 -349.76896339
-100.11435329 199.93744048 -350.01987397
-100.1686201 199.92977430 -349.95982069
-99.85742587 199.93957716 -349.934203
-100.16702818 199.95244491 -349.932457
-99.9722955 200.03959730 -349.51669987
-99.81798815 199.97175092 -349.934203
-100.14677765 199.93827389 -350.021445
-100.08490432 199.99111600 -350.01586375
-99.96207501 200.02478589 -349.61178852
-99.95903745 200.01597761 -349.84967855
-100.05095597 200.01232129 -350.20954972
-99.95855628 199.99559161 -349.51219058
-99.99980004 199.95883490 -350.19348198
-99.98326646 199.96513284 -349.505927
-100.0242703 199.96284963 -349.96980561
-100.01470152 199.95940606 -349.9733124
-100.03040732 200.04486195 -349.9401035
-100.0010969 200.05205822 -349.86047523
-100.02472594 200.04765062 -349.96002679
-100.04039582 200.07529143 -350.03066415
-99.97679929 200.04302676 -349.68021549
-100.17618591 199.95265941 -349.93368266
-100.12103271 199.92739776 -349.96080423
-100.0357154 199.97014091 -350.20825697
-100.13073103 199.97880537 -349.932457
-99.96434063 199.99542502 -349.49550282
-99.85534062 199.99721081 -350.00376735
-99.9937387 199.95992595 -350.18000818
-100.02278312 200.00130984 -350.23155899
-99.9886129 200.01643845 -350.18232097
-99.97245168 200.03978205 -349.72152577
-100.03465237 199.96940217 -350.09140216
-99.99690693 200.01434443 -350.23155899
-99.97601405 200.11027139 -350.18876332
-99.99146218 200.06045843 -350.23155899
-100.03418214 200.04167148 -349.69512869
-100.05074985 199.99784593 -350.12107691
-99.9977514 200.01321013 -350.10994255
-100.04418193 200.03043925 -349.95566736
-99.96034182 200.02110286 -349.65531342
-100.04730391 199.98636989 -349.67055769
-100.02719629 200.04648778 -350.01926751
-100.04778502 199.98739197 -350.00610574
-100.04898608 199.98994349 -349.65623734
-100.00602977 200.05247174 -350.17947769
-100.01651864 199.96006000 -350.11783454
-99.98674774 200.04868968 -349.73279052
-99.99959326 200.05193217 -349.77019084
-100.04690976 199.98553256 -349.90334066
-100.01753009 200.01537462 -349.47781142
-100.04554994 200.06395883 -350.19107673
-100.02467255 200.04767575 -349.79499835
-100.00276481 199.95839618 -349.61837863
-99.96262049 199.98416623 -349.70550324
-100.1581413 199.97964984 -349.95504161
-99.96923177 200.03770949 -350.08018285
-100.11464787 199.99111600 -349.98980793
-100.16521248 199.92624536 -349.96306298
-100.16294477 199.97667874 -350.00482522
-99.95315073 200.00702067 -349.81990959
-100.00515272 199.95859650 -349.68188027
-99.98943371 200.08882854 -350.19478215
-100.02929237 200.04550111 -349.93721918
-100.17598903 199.94702910 -350.01136706
-100.1514575 199.99111600 -349.95200573
-100.00385582 200.09296453 -350.13534904
-100.15010772 199.91882852 -349.9581751
-100.01888439 200.00345309 -349.505927
-99.96466363 199.98106709 -349.88399655
-99.84497575 199.99368375 -350.06987197
-99.95763091 200.00663027 -350.16934992
-99.9456791 199.99354491 -350.07247397
-100.02563407 199.96334042 -349.90301514
-99.96844298 200.03983973 -350.12586603
-99.9739469 200.07575883 -350.19711434
-100.15455568 199.99111600 -350.07494874
-100.05892485 199.99111600 -349.83681226
-99.98315171 199.96390772 -349.99481769
-100.07493083 199.99111600 -350.06996603
-99.96531438 199.98013053 -349.74436857
-99.95782257 200.00434398 -349.97885543
-100.04065758 199.97567645 -350.08043971
-99.98764732 199.96179174 -349.62339696
-100.00929334 199.95894355 -349.63415382
-99.7648729 199.99407752 -350.01417104
-100.03842252 199.97303231 -349.9882692
-99.9919347 199.96913235 -349.505927
-100.03576037 200.04033756 -349.6064981
-99.99953845 200.05192757 -349.67390448
-100.04662078 200.05904511 -350.12610966
-99.97829107 200.07777177 -350.22858199
-99.95942946 200.01815440 -349.91168911
-100.03859705 199.99472664 -349.505927
-100.02129593 200.04926519 -349.51918633
-99.93525483 199.99661089 -350.01501102
-99.97771472 199.99159148 -349.505927
-99.99473402 200.02640564 -350.23155899
-100.01335284 200.01277563 -350.20703747
-99.9583462 199.99809757 -350.01082592
-99.90528426 199.99546760 -350.03643867
-100.03257793 200.02154502 -350.11252169
-100.01888996 200.05037505 -350.04219072
-100.02652088 200.01741009 -350.18720832
-99.85843091 199.98515633 -349.99454999
-100.01699862 199.96023273 -349.60689878
-100.11867207 199.99111600 -349.96679937
-99.95981757 200.01998883 -350.02088426
-99.97821357 200.04400969 -350.09934082
-99.89242075 199.99146853 -350.11138988
-100.02239776 199.96217575 -349.97250698
-100.04126489 200.03463743 -349.81543663
-100.0357172 200.04037406 -349.54599882
-99.98967494 200.02948477 -349.49496686
-100.16533486 199.92633927 -349.93832167
-100.01887419 200.05012286 -350.029929
-100.0128175 199.95923887 -349.93088998
-100.02119132 200.04931444 -349.56404261
-99.98778516 200.08070949 -350.18491501
-100.01244156 199.96194491 -349.4364839
-99.97759017 199.96711311 -349.91424401
-99.98414615 200.04775343 -350.19642604
-99.97321619 200.07229341 -350.029929
-99.9934039 200.09079040 -350.10408592
-99.95800813 200.00213049 -349.959684
-100.0455777 199.98270272 -350.13781643
-100.00336332 199.98135686 -349.43775902
-100.16191691 199.99111600 -350.05499742
