VERSION 0.7
FIELDS x y z
SIZE 4 4 4
TYPE F F F
COUNT 1 1 1
WIDTH 1394
HEIGHT 1
VIEWPOINT 0 0 0 1 0 0 0
POINTS 1394
DATA ascii
-0.16522798 -0.42849556 0.16847767
-0.01347171 0.47461900 -0.14905578
0.26117387 -0.31385365 0.17095198
0.07395304 0.05069128 0.17177673
0.00467292 0.47379431 -0.05585764
0.32962927 -0.04663069 0.17260148
0.28921610 -0.73118335 0.16930243
0.15725389 0.47132000 -0.11029196
-0.08192713 0.41358671 -0.14823103
0.28426751 0.46719629 0.13136336
0.13168615 -0.48622894 0.16847767
-0.01512151 0.41193712 -0.29503867
-0.11409289 0.25935614 0.17177673
-0.12811361 -0.19921166 0.17012723
-0.18832122 0.35750282 0.17177673
0.22900811 0.47132000 -0.26534724
0.09539688 0.47379431 -0.35194728
0.18364634 0.12409510 0.17260148
0.34447512 0.11419799 0.17342624
0.11931482 0.41441140 0.00847380
-0.18502241 -0.09611638 0.17012723
-0.10666978 0.40368950 0.09837291
-0.19574432 0.04079416 0.17012723
-0.03986416 0.30801713 0.17177673
0.19106905 -0.30972984 0.17095198
-0.02666813 -0.10518879 0.17095198
-0.24523002 0.39956579 0.06455764
0.14900647 0.46554670 0.17342624
0.17374912 -0.72293574 0.16847767
0.18117222 -0.19096404 0.17177673
0.10529409 0.47379431 -0.21586151
0.09704628 -0.72046143 0.16765292
-0.25512722 0.32946095 0.17095198
0.29251492 -0.63386136 0.17012723
-0.18914631 0.40946281 -0.05090908
0.20838937 0.46967041 -0.05255861
0.02199285 -0.81200999 -0.16142721
0.07395304 0.46802101 0.14703384
-0.27244717 -0.81943285 0.10332146
0.16137779 -0.57282901 0.16847767
0.22405989 0.47214472 -0.33297774
-0.11161838 0.41276181 -0.34287491
0.03518927 0.39049327 0.17260148
0.24962725 0.42018473 0.17342624
0.03436457 0.40946281 -0.42040256
0.32550538 0.17852940 0.17342624
0.20756428 0.40781340 -0.35937014
0.24055512 0.47049531 -0.14163291
-0.13306221 0.41358671 -0.19111864
0.19436824 0.41028771 -0.22245963
-0.11904150 0.40863809 0.17177673
-0.10089646 -0.80211288 -0.17957197
-0.25842604 0.44987616 -0.22823296
-0.18749651 -0.49035275 0.16682817
0.26034915 0.46884570 -0.00224812
0.01786934 0.47296962 0.00847380
0.21251288 -0.08786876 0.17177673
-0.03491555 -0.64128423 0.16682817
0.32468069 0.47132000 -0.35359681
-0.04068886 0.47461900 -0.22245963
-0.17759970 0.47544390 -0.38988635
0.00219881 -0.46478513 0.17095198
-0.20399174 -0.81778336 -0.25627485
-0.12481480 -0.77324623 0.16517863
0.19189414 -0.42602125 0.16930243
0.22818340 0.41028771 -0.06740431
0.00714742 -0.78066909 -0.42865017
0.21828620 0.19749893 0.17260148
-0.13636142 -0.28416219 0.17012723
-0.23120889 0.46802101 -0.10204434
-0.04563747 0.41028771 -0.43194923
0.26529777 -0.52086890 0.17012723
0.09622158 -0.08456976 0.17095198
-0.25512722 0.41276181 -0.37751493
-0.10914428 -0.79716432 -0.24967678
0.14570726 0.47049531 -0.03029002
0.14488256 0.41276181 -0.13503483
-0.18337300 -0.82190716 -0.15482911
-0.07285462 -0.81118524 -0.07400242
0.14735667 0.41028771 -0.26617202
-0.17017658 -0.80623668 0.02331952
0.27684438 0.22389138 0.17342624
0.17704833 -0.81778336 0.16847767
0.27766910 -0.20663457 0.17177673
-0.03326615 0.40863809 -0.03111477
-0.17759970 0.41358671 -0.29668823
-0.04233866 0.47461900 -0.36926731
-0.14460884 0.47544390 -0.13585958
-0.30131373 -0.84665006 -0.18287103
-0.25595194 -0.59839654 0.16187957
-0.10502037 -0.66107851 0.16765292
-0.05553468 0.08945514 0.17095198
-0.14048533 -0.57282901 0.16517863
-0.21883757 0.41193712 -0.13256055
0.23973003 0.46802101 0.07692907
0.18447104 0.41111240 0.00599954
-0.07038051 -0.53241563 0.17012723
0.30076274 0.46967041 -0.12678719
-0.18502241 -0.18024212 0.17012723
-0.03409085 0.46884570 0.13383767
0.16962521 0.46884570 0.08187763
-0.22873479 -0.28581169 0.16682817
0.25705037 0.41111240 -0.17379865
-0.03079164 0.16945708 0.17177673
0.18529573 0.30389321 0.17260148
-0.15285665 -0.03838307 0.17012723
0.12013952 0.47132000 0.02496903
-0.09017455 -0.36746314 0.17095198
0.14405786 0.47214472 -0.17132436
0.27107108 -0.09694118 0.17177673
-0.23450810 -0.81943285 -0.30741012
-0.20316704 0.41441140 0.17177673
0.06570522 0.47296962 -0.08554909
-0.11161838 0.47461900 -0.28596631
-0.06213270 0.02429893 0.17095198
0.08879887 0.35502851 0.17260148
-0.26667386 -0.81778336 0.03486620
-0.25595194 -0.81448430 -0.39648446
0.05498331 0.41193712 -0.21503676
0.03106537 0.00697890 0.17095198
0.30076274 0.39874089 -0.43194923
-0.26007584 -0.82603097 -0.06822909
-0.10502037 -0.43426886 0.17095198
0.04921000 0.41358671 -0.03029002
0.27931890 -0.81530905 0.16930243
-0.03986416 -0.77242142 0.16600338
-0.31038624 -0.84087670 -0.28761581
-0.24110611 -0.51014698 0.16352911
-0.20729095 -0.38973179 0.16682817
-0.20976506 0.23296370 0.17095198
0.04343669 -0.74025571 0.16682817
0.16632640 0.41111240 0.17342624
0.01704424 -0.19096404 0.17095198
-0.16522798 -0.81860811 -0.05173383
0.24715313 -0.44499078 0.17012723
0.00219881 0.25110853 0.17177673
-0.01512151 -0.28416219 0.17095198
-0.10089646 0.19667423 0.17095198
0.07065383 -0.63798517 0.16765292
0.14323317 0.49688756 -0.43029970
0.22900811 0.01770082 0.17177673
0.00879683 -0.40870133 0.17095198
-0.21553876 0.47544390 -0.33875111
-0.05306058 -0.47880605 0.17095198
-0.00274979 -0.78974146 -0.33215299
0.07230364 0.16450848 0.17177673
0.08220046 -0.81778336 0.16682817
-0.18007380 -0.80046338 -0.43359876
-0.19821844 -0.69819283 0.14538434
0.09374708 -0.38973179 0.17012723
-0.03326615 0.47296962 0.04311381
0.05498331 0.47214472 0.05301097
0.34447512 0.35255420 0.17425103
0.06488053 -0.29240981 0.17095198
0.09787098 -0.13982876 0.17095198
0.34447512 -0.40705171 0.17095198
0.27601969 0.39791617 -0.11276624
0.11436621 0.24945892 0.17260148
0.17045030 -0.25776976 0.17177673
0.33210340 -0.51344609 0.17095198
-0.07780322 0.41276181 -0.20349009
-0.23615751 -0.80871099 0.15693101
-0.06955580 0.41276181 -0.29998726
-0.17924909 -0.76994717 0.15775576
0.09292237 0.47379431 -0.27029583
-0.34007749 -0.84417576 -0.36514348
-0.02419363 -0.58190131 0.16765292
-0.16440327 0.47544390 -0.19441770
-0.09924706 0.40863809 -0.00802143
0.13003674 0.03831986 0.17177673
0.19849215 -0.63798517 0.16930243
0.09787098 0.40946281 -0.38163874
0.29581413 0.00450460 0.17260148
0.04426139 -0.05900211 0.17095198
0.10364430 -0.33364788 0.17177673
0.15972839 0.40781340 -0.38328826
-0.21141486 0.41276181 -0.18534531
0.02446735 0.41193712 -0.25957391
0.05003470 -0.52746701 0.16765292
0.27354559 0.34018287 -0.02451666
0.15395507 0.35832751 0.17342624
0.14653197 0.47296962 -0.33132824
0.08879887 0.41276181 -0.13256055
-0.21223955 0.47544390 -0.22658344
-0.22461088 0.13894083 0.17012723
-0.12646420 0.46967041 0.12146624
-0.04811197 0.47461900 -0.06328050
-0.22708538 0.37317333 0.13961102
0.32550538 -0.28911072 0.17177673
0.28261772 0.28904760 0.17342624
0.29993764 0.40781340 -0.29256442
0.32880458 -0.18519074 0.17177673
-0.19244513 0.39214286 0.04888717
0.11684071 -0.43674317 0.16847767
-0.03161674 -0.22807831 0.17095198
-0.26914796 0.44245327 0.08270243
0.22570930 0.09110465 0.17260148
-0.17594990 0.47544390 -0.02451666
-0.13058811 -0.78149384 -0.44761971
0.01869404 0.47379431 -0.10534337
0.26694718 0.47049531 -0.23153199
-0.19491963 -0.32375076 0.16765292
0.06323112 0.10759988 0.17177673
-0.24770412 0.45482478 0.17177673
0.21416268 0.47214472 -0.38246349
0.22735871 -0.73200810 0.16930243
0.02859087 0.41358671 -0.10616815
-0.34172729 -0.85572237 -0.05338336
-0.06130800 -0.06724972 0.17012723
-0.09017455 0.37977135 -0.43689778
0.29086551 -0.41694894 0.17095198
0.02199285 0.19584943 0.17177673
0.06405582 0.27502668 0.17260148
-0.08027773 -0.21570688 0.17095198
0.32633010 0.40698850 -0.33462730
0.20426546 -0.35756603 0.17012723
-0.26337466 0.41193712 -0.26452246
0.15807860 0.40698850 -0.43277398
-0.02254423 0.41276181 -0.15317959
0.00302352 0.41193712 -0.34782347
-0.14378414 0.41276181 -0.38163874
-0.12811361 0.40204009 0.05383573
-0.09264905 0.41193712 -0.39153588
-0.05718409 0.41276181 -0.25215104
0.14158335 0.16285898 0.17260148
-0.09429845 0.47461900 -0.33215299
0.27354559 0.40616378 -0.39153588
0.06323112 -0.79469001 -0.32060632
0.04756059 0.47379431 -0.16720055
-0.00027569 0.47461900 -0.25050154
-0.13553672 0.01440172 0.17012723
0.01044623 -0.80376238 -0.23730533
-0.09759766 0.47461900 -0.03688813
0.11931482 0.47214472 -0.07152814
0.16220249 0.47214472 -0.22493391
0.30076274 0.40946281 -0.19524245
-0.25512722 -0.83345383 -0.11606529
0.24385394 0.33111036 0.17342624
0.07972635 -0.24622314 0.17095198
-0.15368135 0.41358671 -0.23813011
0.28179300 0.47132000 -0.33132824
0.05580801 0.47049531 0.10249671
-0.10007177 -0.32045177 0.17095198
-0.04398806 0.42513332 0.17260148
-0.07038051 -0.12498303 0.17012723
-0.26090053 0.45235047 -0.34534919
-0.16522798 -0.80211288 -0.34369966
0.21003878 0.45317519 0.17342624
0.27272049 -0.56870520 0.17012723
-0.08027773 -0.78974146 -0.34122539
0.17539892 0.41111240 -0.17462341
0.25292644 0.40863809 -0.28679106
-0.16275387 0.23873700 0.17095198
-0.19739373 0.46884570 0.14043577
-0.01264701 0.47461900 -0.31978157
0.29086551 0.39709148 0.17342624
0.16467699 -0.52004421 0.16930243
-0.08357654 0.47461900 -0.24225391
-0.23615751 0.41111240 -0.05503289
-0.12893870 0.47296962 0.05631003
-0.21471366 -0.62561375 0.16352911
0.28426751 -0.68004805 0.17012723
0.11189210 -0.60169566 0.16847767
-0.10254627 -0.79386526 -0.29586345
-0.19409493 0.47379431 0.02579383
-0.16027936 -0.52829182 0.16682817
0.21498738 0.47049531 -0.09874529
0.12921204 0.46802101 0.12723956
-0.07120521 0.47544390 -0.15317959
-0.08440123 0.47379431 0.03816525
-0.00604900 0.38636956 -0.43524829
-0.27574638 -0.78809196 0.14126053
-0.12481480 0.11007418 0.17095198
0.17539892 -0.77159667 0.16847767
-0.34502608 -0.85654718 -0.10864243
-0.07120521 0.35090479 0.17177673
0.23065791 -0.19756216 0.17177673
0.17374912 0.25935614 0.17260148
0.13581005 0.08533134 0.17177673
-0.23450810 -0.79386526 0.10744527
-0.12234030 -0.81365955 -0.06740431
-0.23945670 0.28244939 0.17095198
0.12343872 0.41441140 -0.09462148
-0.11491758 0.41358671 -0.11359102
0.27684438 -0.27096599 0.17095198
-0.21471366 0.40286478 -0.00802143
-0.26749855 0.42595804 0.03486620
-0.22626029 -0.82768053 -0.21503676
0.19024435 -0.14642687 0.17177673
-0.21636346 0.47049531 0.09589860
-0.24605471 0.45400009 -0.14245769
0.16550170 -0.07632214 0.17177673
-0.15450606 -0.79798907 -0.39648446
0.29993764 0.10759988 0.17260148
0.26034915 0.46389711 0.17425103
-0.09429845 0.29976952 0.17177673
-0.23120889 -0.20828407 0.16682817
0.10364430 0.41523612 -0.03358908
-0.01347171 -0.73613191 0.16600338
0.05003470 0.47379431 -0.34699872
-0.08275183 -0.75840050 0.16517863
0.19601765 0.47049531 -0.14328244
0.08879887 0.41193712 -0.18617009
-0.07780322 -0.80128813 -0.21751104
0.01374543 0.08780555 0.17095198
-0.17512520 0.47544390 -0.10204434
0.05333390 -0.40787652 0.17095198
-0.24358061 0.46307239 -0.18864436
-0.14213474 -0.08127065 0.17012723
-0.26254994 0.15461136 0.14291003
0.30158743 0.31708944 -0.06245575
0.05910721 0.42760763 0.17260148
-0.04563747 -0.80706143 -0.17132436
0.33952650 0.29894480 0.17342624
0.21828620 -0.54313755 0.16930243
-0.25430253 -0.71798712 0.13961102
0.02776616 0.41193712 -0.31070918
-0.24028140 0.40698850 0.11486813
-0.22378618 -0.07632214 0.16435386
-0.02996694 0.39296758 0.04971192
0.18034713 0.47296962 -0.30246153
0.13993396 -0.17611831 0.17177673
-0.27244717 0.20739615 0.13878623
-0.12893870 -0.61571658 0.16187957
0.17539892 -0.67922330 0.16847767
0.29333961 -0.15962309 0.17177673
-0.14708334 0.40698850 -0.03936239
0.01044623 0.41523612 -0.06657956
-0.01924502 -0.79798907 -0.26864630
-0.02089482 -0.69076997 0.16600338
0.11354151 0.41193712 -0.23565583
-0.05141078 -0.02188775 0.17095198
0.30076274 0.46884570 -0.03936239
0.17292441 -0.46890894 0.16930243
0.18199693 0.41276181 -0.08719862
0.25787506 0.40451419 -0.43277398
-0.09594785 -0.17034501 0.17012723
-0.19244513 0.41193712 -0.09379671
-0.00027569 -0.14807637 0.17095198
-0.34997469 -0.85654718 -0.19524245
-0.02419363 0.47461900 -0.10286909
-0.17182599 0.41193712 -0.43442351
-0.02501833 -0.38230887 0.17095198
-0.21141486 0.41358671 -0.32308063
0.01044623 -0.64540803 0.16682817
-0.31121093 -0.82685572 -0.39153588
0.01786934 0.46884570 0.13301292
0.14075866 -0.22725360 0.17177673
-0.13388692 0.41276181 -0.30658534
-0.15698056 -0.80623668 -0.25545010
0.06323112 -0.80376238 -0.25792438
-0.21718816 -0.82190716 -0.05503289
0.16385190 0.40946281 -0.30741012
-0.15698056 0.07213511 0.17012723
-0.10502037 -0.71221381 0.16600338
-0.18584710 -0.13817926 0.17012723
0.02199285 -0.09529167 0.17095198
0.24880254 0.47049531 -0.18287103
0.19601765 0.41111240 -0.03441383
-0.08852514 -0.80706143 -0.12678719
-0.00027569 0.35337910 0.17260148
-0.21553876 -0.80871099 0.02579383
0.13581005 -0.03920778 0.17177673
0.24880254 -0.62231469 0.16930243
0.15312998 -0.32704979 0.17095198
-0.25100332 -0.55056036 0.16270436
-0.06955580 0.41358671 -0.09297195
-0.23863199 0.45729908 0.00434999
-0.13553672 -0.39385560 0.17012723
0.00632233 0.41111240 -0.38988635
0.29746354 0.35750282 -0.11111671
-0.01594621 0.47296962 -0.01544429
0.08137576 0.41111240 -0.31730726
0.13745984 -0.74273002 0.16765292
-0.17430049 0.41276181 -0.16720055
-0.07945263 0.46967041 0.12476530
-0.26419935 -0.81448430 -0.43689778
0.03189007 0.04821697 0.17095198
0.29004082 -0.35261741 0.17095198
-0.13306221 0.47461900 -0.36596826
0.08137576 0.47379431 -0.39071113
0.23313202 0.41028771 -0.23648058
-0.15120725 0.30719241 0.17177673
-0.23533280 0.04409317 0.15940531
-0.14048533 -0.80953574 -0.17132436
-0.04811197 0.12986842 0.17095198
-0.18667181 0.15461136 0.17095198
0.32880458 -0.72046143 0.17012723
-0.18749651 0.47544390 -0.29421392
-0.21141486 0.08780555 0.17012723
0.02116815 -0.30313173 0.17095198
0.16880050 0.01357701 0.17177673
-0.19821844 0.47626862 -0.06410528
-0.16605268 -0.82190716 -0.10286909
-0.14213474 -0.81530905 0.16435386
-0.14295943 -0.23715073 0.17012723
-0.15945466 0.41358671 0.17177673
0.08879887 -0.51509559 0.16847767
-0.26254994 0.45070088 -0.27689391
-0.14543393 0.39626658 0.10827002
-0.30543762 -0.84747475 -0.22328438
0.08385026 0.31049144 0.17260148
-0.24523002 0.41193712 -0.22245963
0.05333390 -0.56788039 0.16765292
-0.06048329 -0.67262518 0.16600338
-0.07285462 -0.78644240 -0.38741207
-0.03161674 -0.81200999 0.16600338
0.07395304 -0.76664811 0.16682817
0.03436457 -0.49035275 0.16930243
0.10034548 0.47379431 -0.30988440
0.28179300 -0.77077192 0.16930243
0.12591283 -0.53571463 0.16847767
0.10117019 0.19255042 0.17177673
0.16962521 0.47049531 -0.06328050
0.18529573 0.47214472 -0.26039866
-0.27986988 -0.82932997 -0.31153396
-0.21553876 0.31461513 0.17095198
0.05663311 -0.19673735 0.17095198
0.08220046 -0.68334711 0.16765292
-0.06873071 0.26100573 0.17177673
0.01457014 -0.78479290 -0.37256634
0.14818177 -0.61819088 0.16847767
0.00302352 0.47461900 -0.18534531
0.29993764 0.46637139 0.17177673
-0.07038051 0.39544189 0.17260148
0.07725185 0.47214472 0.01259761
0.11601601 0.47214472 -0.11111671
-0.20399174 0.47544390 -0.41957781
-0.24605471 -0.38148418 0.16435386
0.12178932 0.47296962 -0.39071113
-0.15203194 0.41276181 -0.34287491
0.13910925 -0.70314139 0.16847767
0.21746150 0.41111240 -0.17462341
-0.01759562 0.41276181 -0.25132629
0.21581209 0.46967041 -0.01379479
-0.04398806 0.47132000 0.08105288
0.20096627 0.46884570 0.05795953
-0.24440531 0.44822678 -0.07070336
0.06075662 0.47379431 -0.24637772
-0.30956152 -0.83757764 -0.06657956
0.10199489 0.46059808 0.17342624
-0.12481480 0.15626086 0.17095198
-0.11574229 0.44822678 0.17260148
0.28261772 0.18512751 0.17342624
0.16797580 0.46802101 0.13301292
-0.24193081 0.31296572 0.13796148
-0.02914224 0.46637139 0.17260148
-0.14873275 0.36492571 0.17177673
0.28756630 -0.06147642 0.17177673
-0.32853085 -0.84087670 -0.32225585
-0.28646830 -0.84005189 -0.14493197
-0.17594990 -0.00704212 0.17012723
0.22983322 0.46884570 0.02249477
0.31395876 0.07131031 0.17260148
-0.20646624 0.19419992 0.17095198
0.21498738 -0.04085728 0.17177673
-0.03903946 0.47461900 -0.18369579
-0.19574432 -0.82190716 -0.19194342
-0.12399010 0.47544390 -0.10121956
0.19354355 0.16780747 0.17260148
0.00714742 -0.34272030 0.17095198
-0.10502037 -0.55798328 0.16600338
-0.20481683 -0.44169179 0.16682817
0.05828251 0.41028771 -0.38493779
-0.15862997 0.41276181 -0.07565195
-0.22791009 0.41276181 -0.28844059
-0.27739576 -0.82273191 -0.00224812
-0.15120725 -0.16209739 0.17012723
-0.07450441 0.47461900 -0.20266531
0.25622526 0.38059625 0.17342624
0.34365040 -0.60169566 0.17095198
0.00302352 -0.80871099 -0.19936629
0.30488625 0.14636375 0.17260148
0.15230528 -0.41694894 0.16930243
0.25787506 0.47132000 -0.30163679
-0.18997101 -0.81036049 -0.29091486
0.24880254 0.46967041 -0.04431097
-0.25017864 -0.81860811 -0.34205014
0.12261403 0.41028771 -0.29751298
-0.25347781 0.43420565 -0.03029002
-0.10584507 0.47544390 -0.13750911
0.23560652 0.40698850 -0.38493779
0.30076274 0.46802101 -0.00142332
-0.25265273 0.23543800 0.16270436
-0.16935188 -0.67509949 0.15363196
0.32962927 -0.64128423 0.17012723
0.01786934 -0.55468416 0.16765292
0.04178729 0.47296962 -0.04678527
0.24880254 0.41028771 -0.13585958
-0.26337466 0.36410102 0.15445670
0.23973003 0.40863809 -0.32308063
0.18941964 0.47214472 -0.34782347
-0.25430253 -0.81200999 0.07115576
-0.11904150 0.47544390 -0.22245963
0.27931890 0.46719629 0.09424910
-0.01347171 0.11502269 0.17095198
-0.00604900 0.00285509 0.17095198
-0.01842032 0.20492184 0.17177673
0.19684236 0.22801508 0.17260148
-0.17347579 -0.28086311 0.16930243
0.13251124 -0.00209351 0.17177673
-0.00522430 -0.81200999 -0.13585958
-0.19739373 -0.80541193 -0.39483494
0.13993396 -0.82025766 0.16765292
0.32715517 0.21894278 0.17342624
0.25705037 0.38142094 -0.04266144
0.25375116 0.46967041 -0.10699290
-0.22048697 0.41276181 -0.39071113
0.12013952 0.37482274 0.17260148
-0.10172156 -0.06560022 0.17012723
-0.33347946 -0.84912437 -0.16307674
0.01869404 0.41276181 -0.22163485
0.31808266 0.47132000 -0.38988635
0.09869569 -0.46973372 0.16847767
-0.18337300 -0.58932424 0.16517863
-0.03903946 0.41193712 -0.32308063
0.24467865 -0.49035275 0.17012723
-0.22213677 -0.66025376 0.15363196
0.34200060 -0.01199063 0.17260148
0.00714742 0.41028771 -0.03029002
-0.18667181 -0.05240400 0.17012723
-0.34667590 -0.85407287 -0.29338917
-0.00192509 -0.77077192 0.16600338
0.30406153 0.40616378 -0.36349395
0.06735503 -0.60169566 0.16765292
0.24797784 -0.06724972 0.17177673
0.32633010 -0.08704396 0.17260148
0.20838937 0.40533909 0.17342624
-0.18667181 -0.73200810 0.15198244
0.22405989 0.05481508 0.17260148
-0.20234235 -0.81036049 0.13466242
-0.13718612 0.47544390 -0.02616621
-0.25347781 0.46554670 -0.31235871
-0.17017658 0.47296962 0.05301097
0.20014156 -0.00456782 0.17177673
0.30818546 0.31708944 0.17342624
0.03271477 -0.43839267 0.17095198
-0.10831957 -0.25034696 0.17012723
-0.22708538 -0.11261161 0.16352911
0.25869977 -0.70561570 0.16930243
-0.03161674 0.41523612 -0.06905384
0.24962725 0.46802101 0.12146624
-0.22955948 0.39544189 0.03239189
0.14983118 0.41276181 -0.01049573
-0.21553876 -0.83097953 -0.14163291
-0.10172156 0.47461900 0.00682430
-0.18254791 0.41276181 -0.21338724
0.22983322 -0.11920971 0.17177673
-0.05141078 -0.79881382 -0.25297579
0.17209971 0.09027985 0.17177673
-0.01017290 0.41358671 0.17260148
0.18364634 -0.10931260 0.17177673
0.14983118 0.46967041 0.05218622
-0.22378618 -0.24374883 0.16765292
-0.04893667 0.41358671 -0.12926149
-0.10089646 0.47544390 -0.07235289
0.34117591 0.38801897 0.17425103
-0.21223955 0.45152578 0.17177673
-0.00522430 0.29976952 0.17177673
0.10694350 0.47132000 -0.01379479
-0.01347171 0.47461900 -0.38988635
0.28591689 -0.49200228 0.17012723
0.23065791 0.13564183 0.17260148
-0.08110242 0.05893889 0.17095198
0.06652993 0.00780360 0.17095198
-0.05635939 0.40039048 0.00517474
-0.12728891 -0.79633957 -0.33710155
-0.11656699 0.41358671 -0.15482911
-0.07780322 -0.63633567 0.16765292
-0.25512722 0.43667996 0.13631196
0.23725593 0.22719039 0.17260148
-0.09512316 -0.46808413 0.17095198
0.10859291 0.47296962 -0.17132436
0.05085980 0.46554670 0.17342624
-0.21966226 -0.47633174 0.16517863
0.22323480 0.47132000 -0.23070724
0.24715313 -0.34601930 0.17012723
0.07065383 0.47379431 -0.21091296
0.08797377 0.08285704 0.17177673
0.26034915 0.40204009 -0.07812623
-0.14543393 0.47544390 -0.29421392
0.30241212 0.47049531 -0.22081010
-0.25925115 -0.82850528 -0.28349200
0.20344077 0.33358467 0.17342624
-0.14460884 -0.45653751 0.16847767
0.14983118 0.41028771 -0.23153199
-0.26914796 0.41771042 -0.12431291
-0.13966063 -0.64870709 0.16105482
0.09539688 0.46967041 0.11981669
0.12013952 0.34018287 0.17260148
0.14900647 0.12904371 0.17177673
-0.07202991 -0.56788039 0.16930243
-0.22626029 0.34843048 0.17177673
-0.20811565 0.00697890 0.17012723
0.30571133 -0.53571463 0.17012723
-0.18337300 -0.81200999 -0.00802143
0.20426546 -0.39385560 0.17012723
0.30323684 -0.38478318 0.17095198
-0.15450606 -0.11343641 0.17012723
-0.20151764 0.47544390 -0.26039866
0.31478345 -0.76087475 0.17012723
-0.31945875 -0.84747475 -0.25462535
0.04591119 0.34430659 0.17260148
-0.23038419 0.41111240 -0.08884814
-0.25347781 -0.29983264 0.14785863
-0.21883757 0.47544390 -0.38163874
-0.03739005 -0.78809196 -0.34534919
-0.03326615 0.47461900 -0.26947105
0.00549762 0.47461900 -0.29091486
0.17952242 -0.60169566 0.16847767
-0.26584914 -0.83922714 -0.19689198
-0.04976137 0.47461900 -0.33050346
0.05250920 -0.02601156 0.17095198
0.21581209 0.47214472 -0.29998726
-0.17594990 0.47544390 -0.15400437
0.10034548 0.01275221 0.17177673
-0.24935392 -0.19261354 0.14291003
-0.10666978 0.40781340 0.02826808
-0.07367932 -0.29900792 0.17095198
-0.13801083 -0.31797746 0.17012723
0.07477774 -0.16457169 0.17095198
-0.15368135 0.41358671 -0.27277011
-0.04316336 -0.51097178 0.17012723
0.25952446 -0.24209933 0.17095198
-0.10914428 0.37647235 0.17177673
0.00467292 0.41276181 -0.17297389
-0.02501833 -0.06560022 0.17095198
0.19024435 -0.23055261 0.17177673
-0.16275387 0.39379227 0.06455764
0.22076069 -0.29405931 0.17012723
-0.22873479 0.38554466 0.09177479
0.26364836 -0.65365565 0.16930243
-0.27079776 0.30141890 0.15033290
-0.03574025 -0.13735455 0.17095198
-0.02914224 -0.45323840 0.17095198
-0.12234030 -0.80293763 -0.20513962
-0.20316704 0.47214472 0.05795953
0.07807694 -0.35509172 0.17177673
0.12921204 -0.07962115 0.17095198
0.26282367 0.09440365 0.17260148
-0.13966063 0.47544390 -0.17214912
0.26199856 0.02182463 0.17260148
0.03189007 0.47379431 -0.13585958
0.19189414 0.40698850 -0.39153588
0.01539484 0.47214472 0.04888717
0.03436457 0.26018083 0.17177673
0.30406153 0.40946281 -0.25297579
0.16715111 0.40863809 -0.34040061
0.25375116 0.41028771 -0.20678912
-0.03656535 0.34100759 0.17260148
-0.10254627 -0.80788618 -0.09627101
-0.21223955 0.47544390 -0.12926149
0.06240642 0.47296962 -0.11853957
-0.15203194 -0.75262713 0.16517863
-0.07862793 0.41276181 -0.34534919
0.06735503 -0.48870325 0.16847767
-0.07862793 0.40039048 0.06950621
-0.21306425 -0.77984428 0.14703384
-0.01182231 0.47461900 -0.35277206
-0.09512316 0.02429893 0.17012723
0.05498331 -0.09529167 0.17095198
-0.04233866 0.05069128 0.17095198
0.13993396 0.47132000 -0.13833389
0.23230731 0.46719629 0.15363196
0.19354355 0.41028771 -0.26122344
-0.02996694 0.27667606 0.17177673
0.28179300 0.40863809 -0.14328244
-0.04068886 -0.54643655 0.16930243
-0.10337096 0.41276181 -0.22410913
-0.04316336 0.41276181 -0.17874722
0.10941760 0.41193712 -0.16060245
-0.09429845 -0.81200999 -0.04266144
0.14405786 0.47049531 0.00270049
-0.17182599 0.47544390 -0.35772064
-0.08275183 0.10924938 0.17095198
0.11684071 -0.36663845 0.17095198
0.23808062 0.46967041 -0.07565195
0.02859087 -0.78974146 -0.34122539
-0.10584507 0.46802101 0.14868338
-0.00192509 -0.79469001 -0.29998726
-0.05553468 -0.59757185 0.16847767
-0.21553876 0.47544390 -0.00967098
0.07890165 0.39214286 0.17260148
-0.07202991 0.40781340 -0.04266144
0.21828620 -0.45983651 0.17012723
-0.11986619 -0.74108046 0.16600338
0.26612249 0.46802101 0.04723762
0.03848808 0.15955986 0.17177673
-0.15780526 -0.81695861 -0.13585958
0.29333961 -0.59344804 0.17012723
0.15148057 -0.28416219 0.17177673
0.05828251 0.41358671 -0.11853957
0.18364634 0.46967041 -0.01379479
0.10776820 0.47132000 0.05466048
0.08467495 -0.05075450 0.17095198
-0.24770412 0.46637139 0.08187763
0.22653401 0.40946281 -0.02451666
0.18612084 -0.54396224 0.16930243
0.22241010 0.30719241 0.17342624
-0.17100129 -0.20910877 0.17012723
-0.27162245 -0.74437952 0.14538434
-0.09099964 0.22719039 0.17177673
0.03106537 -0.38478318 0.17095198
-0.00522430 -0.24622314 0.17095198
0.23478143 -0.81448430 0.16847767
-0.26667386 0.43255624 -0.20266531
-0.21471366 0.38471997 0.17177673
0.24715313 -0.75757575 0.16930243
0.08302555 0.47214472 -0.05750717
-0.17512520 0.40451419 -0.02286716
-0.20234235 -0.35839084 0.16765292
0.21251288 0.46884570 0.09672335
-0.07285462 0.18182850 0.17095198
-0.06873071 -0.39632979 0.17095198
-0.23698220 -0.82603097 -0.26122344
-0.27409658 -0.82190716 -0.03358908
0.20673957 0.40863809 -0.32390538
0.02034345 0.47296962 -0.02369191
0.00054902 0.17275609 0.17177673
0.04756059 0.41606101 -0.06163098
0.01457014 0.47379431 -0.33545205
-0.20316704 -0.80871099 -0.32967871
-0.21223955 0.26677907 0.17095198
-0.07450441 -0.34024599 0.17095198
0.31230935 0.03996936 0.17260148
-0.07367932 0.47461900 -0.37091681
0.22653401 0.41111240 -0.10286909
0.15477978 0.32698667 0.17260148
0.15725389 -0.65200615 0.16847767
-0.24110611 0.41276181 -0.34947300
-0.24605471 -0.41282514 0.16517863
0.11271681 -0.24127454 0.17177673
0.18364634 0.19749893 0.17260148
-0.26172525 0.43338093 0.00270049
0.10281959 0.15791036 0.17177673
0.03189007 -0.80788618 -0.21503676
0.04921000 0.47214472 -0.00802143
0.14900647 0.27832568 0.17260148
0.26859698 -0.13652974 0.17177673
-0.13471203 0.20574655 0.17095198
0.29169023 -0.30808026 0.17095198
-0.17842439 -0.46066132 0.16765292
0.10117019 0.41028771 -0.34369966
-0.10172156 -0.52086890 0.17012723
-0.23285869 0.34265718 0.13796148
-0.23203398 0.40286478 0.14703384
0.06075662 -0.79469001 0.16682817
-0.12976341 0.40451419 -0.00472238
-0.10089646 -0.79633957 0.16517863
0.02034345 0.41853532 0.17260148
0.32385597 -0.15467449 0.17177673
-0.20729095 0.47544390 -0.19606723
0.24632844 -0.27673930 0.17095198
-0.07120521 -0.80623668 -0.15235484
-0.12234030 -0.68664616 0.16682817
-0.24935392 -0.26931646 0.15033290
-0.21471366 -0.17199451 0.16847767
-0.00604900 -0.49777558 0.17012723
-0.19079572 0.39874089 0.01094810
0.17292441 0.47132000 -0.18204626
-0.18584710 -0.82355666 -0.07730147
-0.16110407 0.04161886 0.17012723
-0.19162042 -0.53488994 0.16600338
-0.11491758 -0.80458719 -0.15235484
-0.15533076 0.46884570 0.14291003
-0.20151764 0.41276181 -0.27194533
-0.00604900 -0.60664427 0.16682817
0.00467292 -0.71138901 0.16682817
0.25210175 0.29482090 0.17342624
0.27024639 0.26100573 0.17342624
-0.25430253 0.43915427 -0.10121956
0.13498534 0.43832955 0.17342624
-0.23450810 0.47544390 -0.25380057
0.30076274 0.47049531 -0.25132629
-0.16440327 -0.38395837 0.16847767
-0.13058811 -0.54148793 0.16847767
-0.22955948 -0.31632796 0.16682817
-0.25760135 0.44987616 0.05466048
0.20426546 -0.69819283 0.16847767
-0.09512316 0.41276181 -0.31648251
-0.18254791 0.41276181 -0.39153588
0.01539484 0.41276181 -0.13750911
0.12343872 0.40863809 -0.36431873
0.12591283 -0.39962891 0.16930243
-0.22873479 -0.58272612 0.16352911
0.08137576 -0.41942322 0.17012723
0.04673589 0.07460942 0.17177673
0.28591689 0.46967041 -0.15317959
0.10859291 -0.75180238 0.16765292
-0.10666978 -0.28993550 0.17095198
0.09457217 -0.30478123 0.17177673
0.10859291 -0.16869551 0.17095198
0.13581005 0.46967041 0.08105288
0.07890165 0.47379431 -0.17709769
0.11189210 -0.68912047 0.16765292
0.04756059 0.47379431 -0.27359489
-0.03986416 0.41276181 -0.27771869
-0.32853085 -0.84665006 -0.13338530
-0.12811361 0.47544390 -0.25297579
-0.15203194 0.26677907 0.17177673
0.13828455 0.47296962 -0.24307866
-0.01347171 -0.20416026 0.17095198
-0.28316909 -0.82190716 -0.37916446
0.22323480 0.47049531 -0.16720055
-0.01677092 -0.42437175 0.17095198
0.06982914 -0.12910683 0.17095198
-0.04976137 0.47461900 -0.11936435
0.17622362 -0.34601930 0.17012723
-0.01099761 0.46967041 0.11486813
0.10694350 0.05976369 0.17177673
0.13168615 -0.57612801 0.16847767
-0.01594621 0.08450653 0.17095198
-0.11904150 0.41358671 -0.08307481
-0.01182231 0.47461900 -0.21503676
-0.18914631 -0.81860811 -0.22081010
-0.26584914 0.41028771 -0.05338336
0.18529573 0.46637139 0.16352911
0.28261772 0.44245327 0.17425103
0.25375116 0.17852940 0.17260148
0.20261607 -0.80293763 0.16847767
0.03601397 -0.27756408 0.17095198
-0.24275590 -0.63468611 0.16187957
-0.23120889 0.41276181 -0.25462535
0.02199285 -0.02106305 0.17095198
0.26694718 0.47132000 -0.27359489
-0.24275590 -0.81365955 -0.37009206
0.20261607 -0.27096599 0.17177673
0.05168450 -0.70231664 0.16682817
-0.11739170 0.40863809 -0.03111477
0.29416433 -0.11508591 0.17177673
-0.00439959 0.46802101 0.15280721
-0.11574229 -0.58849943 0.16435386
-0.05965859 0.47214472 0.05631003
0.22570930 -0.42519656 0.17012723
-0.17924909 -0.80293763 -0.36926731
-0.09842236 0.41358671 -0.18287103
-0.33430418 -0.84829950 -0.08060051
0.11931482 0.41523612 -0.06575481
0.33045399 -0.48375463 0.17095198
0.16055308 -0.15549928 0.17177673
0.29169023 0.38059625 -0.13008624
-0.26254994 0.43915427 -0.30411109
0.32880458 -0.31797746 0.17177673
0.31478345 -0.26106885 0.17177673
0.05250920 0.41193712 -0.27029583
0.25622526 -0.79056621 0.16930243
0.17292441 0.41193712 -0.14575672
0.09209767 0.22141707 0.17260148
0.05085980 0.19337513 0.17177673
-0.14625864 0.33605897 0.17177673
0.14158335 0.47214472 -0.20019104
0.11601601 0.41193712 -0.26452246
0.31725797 -0.69076997 0.17012723
0.20179096 0.02759794 0.17177673
-0.02006973 0.40039048 0.01259761
-0.15368135 0.15791036 0.17095198
-0.28399378 -0.83015484 -0.08389957
-0.19491963 -0.66355282 0.14455958
-0.24440531 0.47544390 -0.33792633
-0.17677459 0.39049327 0.17177673
0.02941596 0.41276181 -0.18781960
-0.08522594 0.42018473 0.17260148
-0.14790805 -0.48540416 0.16847767
0.06488053 0.41193712 -0.16885008
0.22323480 -0.65365565 0.16930243
-0.02749283 0.47296962 0.01094810
-0.07697852 -0.44086698 0.17095198
0.12591283 -0.31055456 0.17177673
-0.11986619 -0.01611444 0.17012723
0.22158539 -0.33282319 0.17012723
-0.08440123 -0.79469001 -0.27359489
-0.10007177 -0.09694118 0.17012723
0.20344077 0.28162467 0.17260148
0.29663882 -0.03425927 0.17260148
0.08797377 0.47296962 -0.10534337
0.14158335 0.39379227 0.17342624
0.05663311 0.37152374 0.17260148
0.28179300 0.46967041 -0.10121956
-0.03409085 0.00862841 0.17095198
0.26199856 0.47214472 -0.35194728
-0.05718409 -0.81118524 -0.09792051
0.00714742 -0.81860811 0.16600338
0.31725797 0.37234864 0.17425103
-0.23945670 0.41193712 -0.15235484
-0.08440123 -0.69241953 0.16600338
0.10446899 0.28327429 0.17260148
-0.20481683 0.11832180 0.17012723
0.05085980 -0.81200999 -0.19029389
-0.16770248 0.47461900 0.01507191
0.20179096 -0.57530320 0.16930243
0.12426343 0.46719629 0.15693101
0.04508649 -0.16127259 0.17095198
-0.16935188 -0.56458139 0.16600338
-0.20729095 0.38801897 0.07280526
0.01374543 -0.74437952 0.16682817
-0.22543558 0.47132000 -0.07070336
0.05003470 0.47379431 -0.37833968
-0.21801287 -0.71798712 0.14043577
0.03931278 0.47132000 0.07940337
-0.13223752 0.46802101 0.15940531
-0.26419935 0.43173134 0.17177673
0.13581005 -0.25941935 0.17177673
0.31313404 0.27915037 0.17342624
-0.06213270 0.47379431 0.02002047
-0.18502241 -0.80376238 0.04723762
-0.19079572 0.41276181 -0.13585958
-0.05800879 -0.09529167 0.17012723
0.16962521 0.47132000 -0.15400437
0.03848808 -0.64210898 0.16682817
-0.10172156 -0.40622702 0.17095198
0.15477978 0.41358671 -0.09462148
0.33210340 -0.44581559 0.17095198
-0.11739170 -0.36004034 0.17095198
0.11849011 0.41358671 -0.12513769
-0.05141078 -0.28003839 0.17095198
-0.03821475 -0.30890504 0.17095198
0.01704424 0.22719039 0.17177673
0.20426546 -0.76829761 0.16847767
-0.10007177 -0.78891671 -0.39401016
-0.00274979 0.47379431 -0.08472431
-0.18832122 0.25110853 0.17095198
0.09209767 -0.65612996 0.16765292
0.22158539 0.16945708 0.17260148
-0.12728891 0.47049531 0.09342430
-0.17677459 0.41276181 -0.32473013
0.30406153 0.24451032 0.17342624
0.08797377 0.41193712 -0.21421199
-0.06213270 -0.36746314 0.17095198
0.15972839 -0.44416609 0.16930243
-0.00439959 -0.80953574 -0.17049959
0.14818177 0.41111240 -0.16802531
0.00632233 -0.12085922 0.17095198
0.22653401 0.41028771 -0.26369771
0.04921000 -0.78314334 -0.39565969
-0.25347781 0.12821892 0.14291003
0.02694146 0.40698850 -0.00719668
-0.27162245 -0.80953574 0.15858051
-0.26832324 -0.81530905 0.13053861
-0.13223752 0.47461900 -0.32143107
-0.20151764 0.47626862 -0.03523858
-0.06378250 -0.79304051 0.16600338
0.14240806 0.23791230 0.17260148
0.32303128 0.01440172 0.17260148
-0.07285462 0.47461900 -0.26782152
-0.20399174 -0.21323268 0.16847767
0.11684071 0.47379431 -0.28761581
0.07147854 0.41193712 -0.23730533
-0.20234235 -0.27756408 0.16847767
0.26529777 0.40698850 -0.36514348
0.30653605 -0.80293763 0.16930243
0.28674161 -0.23715073 0.17095198
0.03848808 0.47296962 -0.08060051
-0.26749855 0.46142280 0.15363196
-0.00522430 0.41193712 -0.32143107
0.06405582 0.47379431 -0.31235871
0.02776616 0.41111240 -0.37256634
-0.18832122 0.31873906 0.17177673
0.09869569 -0.78726715 0.16765292
-0.18419771 0.07625892 0.17012723
-0.12728891 -0.79716432 -0.30741012
-0.01512151 0.47214472 0.06373289
0.19931686 0.41028771 -0.19524245
-0.25430253 0.42348373 0.09589860
0.16467699 0.41028771 -0.20843865
0.03189007 -0.21405739 0.17095198
0.18282163 0.35420379 0.17342624
0.15477978 0.06553701 0.17177673
-0.00027569 0.38801897 0.17260148
0.17539892 0.46967041 0.04228906
0.26694718 0.40781340 -0.31153396
0.27437028 0.46884570 -0.03193952
-0.05058608 -0.20828407 0.17095198
0.23725593 0.46884570 0.04971192
0.06075662 0.13481702 0.17177673
-0.02171952 0.41193712 -0.37091681
-0.12728891 0.23543800 0.17095198
-0.02501833 0.23956190 0.17177673
0.19106905 0.47049531 -0.11194149
-0.06213270 -0.24127454 0.17095198
-0.23203398 0.41441140 0.17177673
-0.05223548 0.47461900 -0.24720250
0.18941964 0.47132000 -0.22328438
-0.01182231 -0.55550897 0.16847767
0.08879887 0.41441140 -0.10534337
-0.28894240 -0.83757764 -0.27112058
-0.24687941 -0.47633174 0.16435386
-0.09347375 0.32698667 0.17177673
0.03683868 -0.79386526 -0.31400821
0.27601969 -0.38478318 0.17095198
0.31808266 -0.41694894 0.17095198
-0.22708538 0.46967041 0.12394050
-0.16935188 0.43997917 0.17177673
-0.16605268 -0.81613380 -0.17792246
0.25787506 0.36575043 -0.02039285
-0.06213270 0.32533705 0.17177673
-0.07780322 0.41276181 -0.23318152
0.01044623 0.41193712 -0.28596631
-0.19574432 -0.41612414 0.16682817
-0.21306425 -0.82850528 -0.17214912
-0.26254994 0.43750486 -0.16472626
-0.13636142 -0.81530905 -0.04431097
0.13993396 0.19255042 0.17260148
-0.13636142 -0.80376238 -0.23813011
0.27024639 -0.00869162 0.17260148
0.06900443 0.47132000 0.07610431
-0.17017658 -0.33447269 0.16930243
-0.11409289 -0.22395450 0.17012723
0.27684438 0.31544003 0.17342624
-0.07450441 0.47461900 -0.05090908
0.09044827 -0.27096599 0.17177673
-0.23368339 0.21811807 0.17095198
-0.06378250 -0.80458719 -0.19111864
-0.17594990 -0.80458719 -0.31318346
0.05828251 0.32038844 0.17260148
-0.24028140 -0.82768053 -0.08637384
-0.33347946 -0.85407287 -0.22493391
-0.13883553 -0.42354706 0.16930243
0.22405989 0.42843235 0.17342624
0.06323112 -0.32952407 0.17095198
0.29416433 0.40781340 -0.31978157
0.24715313 0.47049531 -0.21338724
0.16467699 0.17852940 0.17260148
-0.06543190 0.46802101 0.15033290
0.07312834 0.41688570 -0.04183669
-0.07697852 0.00203029 0.17095198
-0.05965859 -0.79056621 -0.32060632
-0.22048697 0.47461900 0.02167002
0.02941596 0.47461900 -0.18946911
0.28674161 -0.44334128 0.17095198
0.28674161 0.33358467 -0.04761003
-0.22048697 0.41276181 -0.21256246
0.17374912 0.41028771 -0.28266725
-0.14295943 0.47461900 -0.39071113
0.10611880 -0.10931260 0.17095198
0.22570930 0.41193712 -0.14905578
-0.09512316 -0.13488024 0.17012723
-0.24028140 0.37729704 0.17177673
-0.10007177 0.47214472 0.05960909
-0.14295943 0.41358671 -0.15153006
0.21911129 -0.16622120 0.17177673
-0.17430049 0.47544390 -0.05255861
0.31725797 -0.60499465 0.17012723
0.26282367 0.40946281 -0.26204821
-0.21223955 -0.74355477 0.14455958
-0.03986416 0.47461900 -0.14658150
-0.07285462 -0.15137547 0.17012723
0.01786934 -0.05652781 0.17095198
0.26447308 -0.41859844 0.17012723
-0.04728727 0.19997324 0.17177673
-0.10172156 0.47461900 -0.36431873
0.11271681 0.47379431 -0.24967678
0.04921000 -0.66767663 0.16765292
-0.04481276 0.47049531 0.10744527
0.02446735 -0.52086890 0.16847767
0.12508813 -0.14807637 0.17095198
0.18941964 0.43667996 0.17342624
0.00632233 -0.36911264 0.17095198
-0.02749283 0.47461900 -0.29668823
0.03518927 -0.80376238 -0.24637772
-0.23368339 0.07460942 0.16517863
0.15890329 -0.20498496 0.17177673
0.13910925 0.47132000 -0.08884814
-0.00192509 0.47296962 0.02909288
0.20921408 0.41028771 -0.00472238
-0.15285665 -0.82108241 -0.07482717
-0.19574432 0.47544390 -0.32143107
-0.19491963 -0.81695861 -0.03111477
-0.24852921 0.41111240 -0.10781768
0.17457382 0.41028771 -0.24307866
-0.01759562 -0.35591653 0.17095198
-0.12893870 -0.04910500 0.17012723
0.24137983 -0.00539252 0.17177673
0.24385394 0.35750282 0.17342624
-0.02749283 -0.26106885 0.17095198
-0.22791009 0.47544390 -0.31565776
0.29498941 0.47132000 -0.37751493
-0.10419567 0.40533909 0.06703195
0.05580801 -0.79963857 -0.28266725
0.06817973 -0.73200810 0.16765292
-0.01512151 -0.80211288 -0.24225391
-0.15038255 0.47214472 0.07115576
-0.21471366 -0.14312786 0.16847767
-0.12069090 -0.16209739 0.17012723
0.10694350 -0.63468611 0.16765292
0.20426546 0.07625892 0.17260148
0.06488053 -0.22148030 0.17095198
0.18117222 -0.37158695 0.16930243
-0.21966226 0.16450848 0.17095198
0.07642715 0.45564950 0.17342624
0.15642919 -0.54726136 0.16847767
-0.11821679 0.41276181 -0.37669018
-0.16440327 0.39214286 0.09095004
-0.24358061 0.40616378 -0.02369191
-0.15368135 -0.79881382 -0.36761779
-0.25677663 0.40533909 0.02331952
-0.21553876 -0.52499270 0.16435386
-0.07450441 -0.50684798 0.17095198
-0.00934820 0.32533705 0.17260148
0.14900647 0.46884570 0.10332146
-0.18667181 0.47544390 -0.23070724
-0.18007380 0.47544390 -0.12843671
-0.04398806 -0.74685383 0.16600338
-0.03326615 -0.61076808 0.16765292
0.28674161 0.31791434 -0.02534146
0.00714742 -0.27096599 0.17095198
0.27601969 0.46802101 0.02331952
0.01704424 0.28657329 0.17177673
-0.13388692 -0.13982876 0.17012723
-0.22543558 -0.69324428 0.14126053
-0.25842604 0.43420565 -0.39153588
0.26529777 -0.59344804 0.17012723
-0.19409493 0.46967041 0.11486813
-0.08605103 -0.73283285 0.16517863
-0.07120521 0.47461900 -0.07647670
0.17374912 0.15131225 0.17260148
-0.14955746 0.41358671 -0.21091296
-0.32110813 -0.83510333 -0.35029778
0.20014156 0.41111240 -0.06905384
0.14158335 0.47296962 -0.36514348
0.17374912 0.41276181 -0.11194149
-0.21388896 0.41358671 -0.34864822
0.13416064 -0.45571271 0.16847767
-0.01264701 0.43915427 0.17260148
0.30653605 0.19584943 0.17342624
0.28261772 0.41028771 -0.17709769
0.03189007 0.10595037 0.17177673
0.24880254 -0.21570688 0.17177673
-0.19656903 0.47544390 -0.36431873
0.07065383 0.47379431 -0.28761581
-0.28069496 -0.84087670 -0.22328438
-0.06378250 -0.78726715 -0.36349395
0.20509017 -0.60169566 0.16930243
-0.12069090 -0.47138321 0.16930243
0.16550170 0.46967041 0.01837097
-0.14295943 0.39956579 0.03321669
-0.23698220 -0.76829761 0.11404338
0.13003674 -0.20416026 0.17177673
-0.09347375 0.08615604 0.17095198
0.01127093 0.47461900 -0.22575866
-0.18832122 -0.82520622 -0.13008624
-0.01017290 -0.78561765 -0.36679301
-0.16522798 0.46967041 0.11816719
0.06405582 0.41276181 -0.14328244
0.11106740 -0.04498109 0.17095198
0.23230731 0.40781340 -0.35359681
-0.14460884 0.43420565 0.17177673
0.22818340 0.40946281 -0.29833773
-0.23368339 0.46802101 0.15528150
-0.11821679 0.29152191 0.17177673
-0.13306221 -0.81448430 -0.09132242
-0.10337096 0.47461900 -0.26204821
0.09044827 0.25770655 0.17260148
-0.18172321 0.41358671 -0.25627485
-0.20646624 0.41193712 -0.15565389
0.32880458 0.33275998 0.17342624
-0.21553876 0.05646459 0.17012723
0.25045195 0.11997130 0.17260148
-0.05388528 0.39626658 0.06703195
-0.08605103 0.47461900 -0.28926536
-0.14625864 0.09687795 0.17095198
-0.22461088 0.47214472 0.07115576
-0.01677092 0.41276181 -0.18617009
0.07147854 -0.54561186 0.16765292
0.30488625 -0.32952407 0.17095198
-0.08275183 0.41276181 -0.27854344
-0.25925115 -0.76912242 0.14208528
-0.06790601 -0.04085728 0.17012723
0.12013952 0.20904565 0.17260148
0.17704833 0.40781340 -0.36349395
0.03024066 -0.76334906 0.16682817
0.08385026 -0.58272612 0.16765292
-0.11739170 0.41276181 -0.28761581
-0.19244513 -0.02601156 0.17012723
-0.24440531 0.41193712 -0.18452056
-0.02666813 -0.80706143 -0.18781960
-0.25760135 0.42100963 0.06868145
-0.05800879 0.29069701 0.17177673
-0.00934820 -0.17941742 0.17095198
0.20344077 -0.73943096 0.16847767
0.17209971 0.41193712 -0.02699096
0.08714907 0.11667229 0.17177673
0.16550170 -0.49282706 0.16930243
-0.15038255 -0.59509754 0.15940531
0.09622158 0.47132000 0.03239189
-0.02501833 -0.79139096 -0.30905965
0.32797989 -0.37818506 0.17095198
0.28014359 0.47049531 -0.20761390
-0.08440123 -0.79881382 -0.24142917
-0.34915000 -0.86314529 -0.27029583
-0.18914631 0.21894278 0.17095198
-0.14295943 -0.81200999 -0.01791860
-0.24935392 -0.82025766 -0.03523858
0.06488053 0.47379431 -0.14328244
0.25127706 -0.17611831 0.17177673
-0.04646217 0.47379431 -0.03853763
0.04838530 0.47214472 0.02909288
-0.06955580 0.41193712 -0.38246349
0.23313202 0.38966855 0.17342624
-0.16522798 -0.07219833 0.17012723
0.33045399 -0.53818893 0.17095198
-0.02006973 0.47379431 -0.05750717
-0.12976341 -0.79386526 -0.39236066
0.11436621 0.09770276 0.17177673
-0.17347579 0.47544390 -0.07730147
0.10694350 0.47214472 -0.05008430
-0.26007584 0.43255624 -0.36019492
0.20179096 0.41193712 -0.10204434
0.04261199 0.46884570 0.13383767
0.21086349 0.12079610 0.17260148
-0.16440327 0.47544390 -0.21916057
-0.16110407 0.21399416 0.17095198
-0.26090053 0.18430281 0.14785863
0.16880050 0.37812194 0.17342624
-0.18914631 -0.62066519 0.16023006
-0.24440531 -0.80788618 0.04888717
0.26447308 0.46967041 -0.12926149
-0.24193081 0.47544390 -0.36431873
0.00632233 -0.67344999 0.16682817
-0.20399174 -0.11920971 0.16930243
-0.24770412 0.28904760 0.13631196
-0.13718612 0.39874089 0.08517668
0.32385597 0.13069321 0.17342624
0.30488625 -0.19096404 0.17177673
0.04673589 0.41193712 -0.29421392
0.15230528 0.47296962 -0.30741012
0.28674161 0.07708372 0.17260148
-0.00357450 0.41276181 -0.12183863
-0.22791009 -0.81365955 -0.33297774
-0.14955746 -0.80788618 0.01012335
0.28261772 0.41028771 -0.21503676
-0.22873479 0.47544390 -0.14740625
0.28344241 0.12574461 0.17260148
-0.18254791 0.47544390 -0.17792246
0.31890738 -0.02023824 0.17260148
-0.05635939 0.45482478 0.17260148
-0.21801287 0.40698850 -0.03193952
0.13416064 -0.34931841 0.17095198
-0.17842439 0.02347413 0.17012723
0.24467865 0.47214472 -0.36926731
0.02611676 0.47049531 0.10002241
-0.01099761 -0.79881382 0.16600338
0.24715313 0.07460942 0.17260148
0.12591283 0.47296962 -0.34452441
0.04756059 -0.81530905 0.16682817
0.20179096 0.41193712 -0.15400437
-0.23450810 0.11667229 0.16847767
0.20673957 0.47214472 -0.27524439
-0.29966432 -0.83262908 -0.00142332
-0.08770044 0.47461900 -0.01461954
-0.04398806 0.40039048 0.17260148
0.22076069 -0.21983069 0.17177673
0.23478143 -0.51262128 0.17012723
-0.11326818 0.47379431 0.02826808
0.05663311 0.40204009 0.17260148
-0.20811565 0.47544390 -0.10039482
-0.26419935 0.45482478 0.10744527
0.06982914 0.46967041 0.12229100
-0.24110611 -0.23055261 0.15693101
0.24797784 0.47214472 -0.32885394
-0.09594785 0.16450848 0.17095198
0.00384822 -0.79798907 -0.27606913
0.04756059 0.41193712 -0.24060439
0.11601601 -0.81695861 0.16765292
-0.29059181 -0.82932997 -0.05420811
-0.17017658 0.39379227 0.03981475
-0.23368339 0.24780951 0.17095198
0.17622362 -0.29076031 0.17177673
0.22818340 -0.36086503 0.17012723
0.08220046 0.41028771 -0.35854539
-0.04481276 0.25770655 0.17177673
-0.10089646 0.41358671 -0.13338530
-0.15203194 0.12821892 0.17095198
0.26694718 0.46802101 0.07363001
0.00879683 -0.57695282 0.16682817
-0.23533280 -0.82850528 -0.23730533
-0.26419935 0.43420565 -0.25545010
-0.01759562 -0.81283480 -0.11524051
-0.22213677 -0.41035083 0.16600338
0.17787302 0.41193712 -0.05173383
0.18199693 0.47049531 -0.08389957
-0.13553672 0.41358671 -0.10121956
0.22570930 -0.61406708 0.16930243
0.25787506 0.47049531 -0.16060245
0.20344077 -0.20003645 0.17177673
0.30488625 -0.65448046 0.17012723
-0.24028140 -0.83675289 -0.14905578
-0.02749283 -0.71386331 0.16600338
-0.23533280 -0.81200999 0.01259761
0.01621954 0.47461900 -0.15400437
-0.12563951 -0.79798907 -0.28349200
-0.26337466 0.41111240 -0.15070531
0.25705037 0.40946281 -0.10369385
-0.02666813 -0.02766116 0.17095198
-0.07285462 0.47461900 -0.32143107
0.04756059 0.03007224 0.17095198
0.24550334 -0.10106499 0.17177673
0.20673957 0.46719629 0.15198244
0.19931686 -0.66190332 0.16930243
0.28261772 -0.70479095 0.16930243
0.18612084 0.39461717 0.17342624
-0.04811197 0.47461900 -0.08719862
0.08879887 0.47379431 -0.23318152
0.08137576 0.47379431 -0.32885394
0.27107108 0.36327612 -0.05173383
0.24302924 0.20409705 0.17260148
0.25292644 -0.73448241 0.16930243
-0.22461088 -0.36663845 0.16600338
0.33787671 0.47049531 -0.33380252
-0.00604900 -0.32292598 0.17095198
-0.07615382 -0.18354122 0.17012723
-0.18502241 0.45812377 0.17177673
-0.28151968 -0.83510333 -0.11853957
0.08962356 -0.60994327 0.16765292
0.02364265 0.33523428 0.17260148
-0.25347781 -0.79963857 0.12064149
-0.23450810 -0.18271643 0.16105482
-0.03161674 -0.80871099 -0.15235484
-0.21636346 0.02924744 0.17012723
0.22158539 0.47132000 -0.20678912
-0.16935188 0.41276181 -0.09874529
0.07890165 0.47049531 0.09754815
-0.00934820 0.15131225 0.17177673
0.17457382 0.46884570 0.10497097
0.29004082 0.47132000 -0.35442159
0.23973003 -0.55303466 0.16930243
0.17457382 0.47049531 -0.04018719
-0.07945263 0.41358671 -0.11441576
-0.25017864 0.41111240 -0.07400242
0.16302720 -0.05157920 0.17177673
-0.13388692 -0.79963857 -0.26122344
0.02529206 0.47461900 -0.26617202
-0.23780730 0.41276181 -0.32143107
0.05333390 -0.37736037 0.17177673
0.02611676 -0.81118524 -0.18452056
0.13086145 0.40863809 -0.38658729
0.09869569 0.41606101 -0.07730147
0.09622158 0.41193712 -0.29916251
0.27849418 0.37647235 -0.08967290
-0.10337096 0.46967041 0.11734243
-0.18254791 -0.81200999 -0.26369771
-0.29306629 -0.79881382 0.15280721
-0.12234030 0.47461900 -0.00719668
-0.20894036 -0.81283480 0.15693101
0.04921000 0.29729521 0.17260148
0.15972839 -0.01693924 0.17177673
-0.26914796 0.40946281 -0.03029002
0.02529206 -0.46808413 0.17012723
-0.04646217 0.41358671 -0.08967290
0.06817973 -0.06724972 0.17095198
0.28921610 0.04326846 0.17260148
-0.12563951 0.08120753 0.17095198
0.02364265 0.47379431 -0.35689586
0.02116815 0.36245140 0.17260148
-0.30956152 -0.84170145 -0.14740625
0.00797212 0.41441140 -0.09544623
-0.26090053 0.41853532 -0.33875111
0.26364836 0.46719629 0.14208528
-0.26584914 0.32946095 0.15033290
0.11849011 0.47379431 -0.36761779
-0.09099964 0.25440753 0.17177673
0.16880050 -0.74932808 0.16847767
-0.12728891 0.17935421 0.17095198
-0.14131004 0.47544390 -0.22905771
0.18777023 -0.51756990 0.16930243
-0.25595194 -0.81448430 0.00105094
0.01539484 -0.78314334 -0.39565969
-0.10419567 -0.79139096 -0.35194728
0.11189210 0.41193712 -0.21256246
-0.17924909 -0.35756603 0.16847767
0.28096831 0.40863809 -0.27936819
0.26447308 -0.54396224 0.17012723
-0.13553672 0.38389525 0.17177673
0.11849011 -0.50519848 0.16847767
0.27024639 -0.16044788 0.17177673
0.30736074 -0.07384784 0.17260148
-0.26502445 0.41853532 -0.23235677
-0.24110611 0.46307239 -0.16307674
-0.20316704 0.41193712 -0.06905384
-0.14213474 -0.26189357 0.17012723
0.32633010 0.40616378 -0.36926731
-0.18914631 0.41276181 -0.19111864
-0.03574025 0.10924938 0.17095198
0.23643123 0.40946281 -0.04596050
0.29251492 0.47132000 -0.30658534
-0.20646624 -0.60416996 0.16435386
-0.12069090 -0.63716042 0.16682817
-0.26090053 -0.84087670 -0.16142721
-0.14790805 -0.67839855 0.16105482
0.18364634 -0.06230112 0.17177673
0.02116815 0.41193712 -0.33380252
-0.03903946 0.41276181 -0.23813011
-0.03244144 -0.16044788 0.17095198
-0.13058811 0.47544390 -0.20266531
-0.01264701 0.47461900 -0.12266338
