# .PCD v0.7 - Point Cloud Data file format
VERSION 0.7
FIELDS x y z
SIZE 4 4 4
TYPE F F F
COUNT 1 1 1
WIDTH 1440
HEIGHT 1
VIEWPOINT 0 0 0 1 0 0 0
POINTS 1440
DATA ascii
3.72799993 1.08399999 3.10899997
4.27799988 0.96399999 2.76900005
4.34800005 1.41400003 2.80900002
2.84800005 1.10399997 3.09899998
4.22800016 0.97399998 2.84899998
3.04800010 1.04400003 2.75900006
4.35799980 0.93400002 3.09899998
2.97799993 1.19400001 3.10899997
3.02800012 0.86400002 2.91899991
4.32800007 1.63399994 3.10899997
3.35800004 1.08399999 3.10899997
3.09800005 0.824 3.09899998
3.88800001 1.47399998 2.89899993
4.35799980 0.92400002 2.95900011
2.92799997 0.86400002 3.09899998
4.35799980 1.42400002 3.12899995
4.26800013 1.12399995 2.89899993
2.83800006 1.39400005 2.78900003
3.75799990 1.34399998 2.78900003
3.16799998 1.35399997 2.78900003
4.31799984 1.40400004 2.77900004
4.25799990 0.91399997 3.00900006
4.06799984 1.33399999 2.78900003
4.36800003 1.12399995 3.13899994
4.11800003 1.48399997 2.86899996
4.18800020 1.24399996 3.05900002
4.25799990 0.99400002 2.91899991
3.36800003 0.86400002 3.10899997
4.23799992 0.824 2.83899999
4.26800013 1.53400004 2.80900002
4.37799978 0.97399998 2.83899999
4.35799980 1.00399995 2.91899991
4.35799980 1.50399995 2.95900011
3.50799990 0.98400003 3.11899996
4.35799980 1.52400005 3.08899999
3.74799991 1.62399995 3.13899994
4.06799984 1.34399998 2.78900003
3.22799993 0.86400002 2.85899997
3.03800011 1.47399998 2.85899997
3.12800002 0.884 2.90899992
3.92799997 1.54400003 2.90899992
4.35799980 1.47399998 2.91899991
3.44799995 1.21399999 3.10899997
2.99799991 1.02400005 3.10899997
4.14799976 0.92400002 3.10899997
4.26800013 1.27400005 2.94899988
4.36800003 1.26400006 2.9690001
4.35799980 1.02400005 3.06900001
3.16799998 0.83399999 2.97900009
4.35799980 1.33399999 3.06900001
3.25799990 1.41400003 2.78900003
3.04800010 1.14400005 2.81900001
3.21799994 1.53400004 2.86899996
4.32800007 1.15400004 2.78900003
4.35799980 1.48399997 3.12899995
4.25799990 1.574 2.91899991
3.85800004 1.65400004 2.91899991
4.36800003 1.30400002 3.12899995
4.36800003 1.26400006 3.00900006
4.29799986 1.26400006 2.829
3.57800007 0.824 2.98900008
3.03800011 1.17400002 2.81900001
3.02800012 0.83399999 3.09899998
4.35799980 1.34399998 2.83899999
4.35799980 1.51400006 3.11899996
3.26799989 1.21399999 3.10899997
2.64800000 0.89399999 2.78900003
3.01799989 1.17400002 2.79900002
2.95799994 0.93400002 3.09899998
3.00799990 1.14400005 3.10899997
4.35799980 1.17400002 2.86899996
3.25799990 1.10399997 3.10899997
3.14800000 0.99400002 2.829
4.25799990 0.96399999 2.98900008
4.21799994 1.53400004 2.91899991
3.88800001 1.50399995 2.90899992
3.16799998 0.91399997 2.84899998
3.03800011 1.22399998 3.10899997
3.75799990 1.16400003 3.09899998
4.35799980 1.29400003 2.829
3.98799992 1.04400003 3.09899998
3.64800000 1.47399998 2.86899996
3.49799991 1.42400002 2.78900003
4.23799992 1.56400001 2.93899989
4.28800011 1.60399997 2.79900002
3.21799994 1.324 2.78900003
4.26800013 1.11399996 2.93899989
4.35799980 1.37399995 2.89899993
3.20799994 0.89399999 3.09899998
3.86800003 1.69400001 3.03900003
4.23799992 0.90399998 2.83899999
3.39800000 1.01400006 3.10899997
3.04800010 1.11399996 2.79900002
3.86800003 1.64400005 2.90899992
3.30800009 1.58399999 2.84899998
4.35799980 1.08399999 3.12899995
3.65799999 1.47399998 2.86899996
4.26800013 1.19400001 2.89899993
3.85800004 1.67400002 2.9690001
4.35799980 1.46399999 3.079
4.21799994 1.21399999 3.05900002
3.95799994 1.64400005 2.91899991
3.82800007 1.66400003 2.94899988
4.04799986 1.06400001 3.09899998
3.05800009 1.43400002 2.80900002
3.23799992 1.03400004 2.93899989
3.20799994 1.36399996 2.78900003
3.74799991 1.44400001 2.79900002
3.22799993 0.87400001 2.91899991
3.81800008 1.68400002 3.11899996
4.26800013 1.22399998 2.89899993
4.35799980 1.08399999 3.079
4.35799980 1.25399995 2.829
3.27800012 1.03400004 3.10899997
3.61800003 1.40400004 2.78900003
4.35799980 1.30400002 2.99900007
3.04800010 1.38399994 2.78900003
4.26800013 1.05400002 3.079
3.47799993 1.204 3.10899997
3.16799998 0.86400002 3.09899998
4.35799980 1.25399995 2.80900002
2.87800002 0.93400002 3.09899998
2.99799991 1.59399998 3.06900001
3.43799996 0.92400002 3.11899996
3.92799997 1.46399999 2.88899994
4.21799994 0.884 3.10899997
2.92799997 1.35399997 2.78900003
4.30800009 1.61399996 2.77900004
4.22800016 0.96399999 2.83899999
3.48799992 0.96399999 3.11899996
4.07800007 1.52400005 2.87899995
4.33799982 1.55400002 2.89899993
4.36800003 1.204 2.98900008
2.57800007 0.84399998 2.76900005
2.73799992 1.41400003 2.79900002
4.35799980 1.074 3.01900005
3.69799995 1.454 2.83899999
4.35799980 1.23399997 2.78900003
3.12800002 0.884 2.89899993
3.86800003 1.65400004 3.14899993
3.62800002 1.10399997 3.09899998
3.49799991 1.04400003 3.11899996
3.79800010 1.53400004 2.90899992
3.27800012 1.454 2.79900002
4.32800007 1.60399997 2.83899999
4.25799990 1.58399999 2.90899992
3.27800012 1.41400003 2.78900003
2.84800005 1.15400004 3.10899997
3.87800002 1.704 3.00900006
4.13800001 1.25399995 3.06900001
4.35799980 1.01400006 3.08899999
4.26800013 1.11399996 3.00900006
4.06799984 0.96399999 3.09899998
4.35799980 1.49399996 3.06900001
3.22799993 0.99400002 3.10899997
4.34800005 1.23399997 2.77900004
3.44799995 1.10399997 3.10899997
3.39800000 1.24399996 3.10899997
4.34800005 1.58399999 3.09899998
4.35799980 1.52400005 3.12899995
3.46799994 0.91399997 3.11899996
3.83800006 1.68400002 3.11899996
2.66799998 0.89399999 2.74900007
3.13800001 1.18400002 2.90899992
2.94799995 1.42400002 2.77900004
3.25799990 1.08399999 3.10899997
3.17799997 1.12399995 3.10899997
2.64800000 1.54400003 2.81900001
3.16799998 1.12399995 2.90899992
3.96799994 1.16400003 3.09899998
3.25799990 0.85399997 2.93899989
4.24800014 0.97399998 2.83899999
3.23799992 1.08399999 2.98900008
3.35800004 1.454 2.78900003
3.07800007 1.02400005 3.10899997
4.31799984 1.60399997 2.98900008
3.33800006 1.37399995 2.78900003
3.06800008 1.454 2.84899998
4.33799982 1.56400001 2.93899989
4.33799982 1.60399997 3.08899999
3.35800004 1.48399997 2.80900002
4.13800001 1.19400001 3.079
3.67799997 1.12399995 3.10899997
3.12800002 1.204 3.10899997
3.38800001 1.34399998 2.78900003
3.14800000 0.81400001 3.09899998
4.32800007 1.63399994 2.85899997
3.31800008 1.54400003 2.85899997
4.35799980 1.47399998 2.99900007
4.26800013 1.11399996 2.85899997
3.15799999 1.00399995 2.83899999
3.65799999 1.17400002 3.10899997
2.57800007 0.824 2.76900005
3.22799993 1.34399998 2.78900003
2.88800001 0.824 3.08899999
4.23799992 1.074 3.079
3.87800002 1.03400004 3.10899997
4.11800003 1.43400002 2.77900004
4.35799980 1.58399999 3.14899993
3.18799996 1.15400004 2.94899988
4.20800018 0.90399998 2.85899997
4.25799990 0.87400001 3.03900003
3.01799989 1.12399995 3.10899997
3.58800006 1.43400002 2.78900003
3.33800006 1.55400002 2.84899998
3.41799998 1.46399999 2.79900002
4.35799980 1.03400004 2.90899992
2.64800000 1.64400005 2.85899997
3.12800002 1.44400001 2.829
3.00799990 1.08399999 3.10899997
4.24800014 1.51400006 2.83899999
2.62800002 0.91399997 2.78900003
2.85800004 0.954 3.09899998
3.68799996 1.49399996 2.86899996
3.81800008 1.13399994 3.09899998
4.35799980 1.47399998 3.03900003
2.95799994 1.05400002 3.09899998
3.40799999 1.454 2.79900002
4.36800003 1.17400002 2.98900008
4.09800005 1.15400004 3.08899999
3.00799990 0.90399998 3.09899998
3.03800011 1.074 2.76900005
3.50799990 1.13399994 3.10899997
3.20799994 1.06400001 2.91899991
3.09800005 0.884 2.90899992
3.00799990 1.53400004 2.95900011
4.35799980 1.14400005 2.86899996
3.79800010 1.66400003 3.11899996
4.07800007 1.44400001 2.84899998
4.22800016 1.574 2.97900009
3.21799994 1.42400002 2.77900004
4.35799980 1.38399994 3.04900002
3.57800007 1.47399998 2.83899999
3.04800010 1.54400003 2.94899988
3.77800012 1.39400005 2.78900003
4.20800018 1.49399996 2.84899998
4.03800011 1.43400002 2.77900004
2.84800005 1.08399999 3.09899998
2.87800002 1.24399996 3.10899997
3.86800003 1.704 3.11899996
3.96799994 1.47399998 2.86899996
3.16799998 1.00399995 2.85899997
3.75799990 1.454 2.829
3.43799996 1.62399995 2.84899998
4.20800018 1.03400004 3.08899999
3.52800012 1.59399998 2.94899988
4.07800007 1.36399996 2.78900003
3.23799992 1.074 2.97900009
3.07800007 0.86400002 3.09899998
4.35799980 1.18400002 2.829
3.85800004 1.60399997 2.90899992
2.62800002 0.86400002 2.77900004
3.24799991 1.41400003 2.78900003
3.04800010 1.03400004 3.10899997
3.25799990 0.85399997 2.87899995
2.85800004 1.19400001 3.10899997
3.13800001 0.91399997 3.09899998
3.74799991 1.48399997 2.89899993
2.63800001 0.86400002 2.77900004
3.78800011 1.10399997 3.09899998
2.96799994 0.99400002 3.09899998
3.39800000 1.41400003 2.78900003
3.02800012 0.86400002 3.09899998
4.34800005 1.47399998 2.829
2.93799996 1.33399999 2.78900003
3.63800001 1.074 3.09899998
3.14800000 0.80400002 3.09899998
3.84800005 1.18400002 3.09899998
4.26800013 1.18400002 3.05900002
3.93799996 1.47399998 2.86899996
3.50799990 1.10399997 3.11899996
3.17799997 0.85399997 3.09899998
3.29800010 0.92400002 3.10899997
4.34800005 1.454 2.81900001
3.18799996 1.10399997 2.91899991
2.99799991 1.454 2.85899997
4.17799997 1.52400005 2.88899994
2.97799993 1.42400002 2.78900003
3.33800006 1.16400003 3.10899997
2.93799996 1.42400002 2.78900003
2.85800004 1.44400001 2.83899999
4.35799980 1.05400002 2.9289999
3.16799998 0.83399999 3.09899998
4.01800013 1.43400002 2.78900003
3.69799995 1.40400004 2.78900003
3.08800006 1.43400002 2.78900003
4.13800001 1.48399997 2.85899997
3.70799994 1.11399996 3.10899997
4.33799982 1.56400001 2.829
2.57800007 1.18400002 2.78900003
4.35799980 1.47399998 3.08899999
4.20800018 1.36399996 2.78900003
4.02799988 1.11399996 3.09899998
3.88800001 1.68400002 2.97900009
4.36800003 1.15400004 3.01900005
3.91799998 1.66400003 2.93899989
3.95799994 1.06400001 3.10899997
2.96799994 0.81400001 3.09899998
4.25799990 1.02400005 2.9690001
3.81800008 1.51400006 2.90899992
2.99799991 0.884 3.09899998
2.86800003 0.85399997 3.08899999
4.06799984 1.08399999 3.09899998
3.59800005 0.81400001 3.02900004
4.04799986 1.05400002 3.09899998
2.90799999 0.884 3.09899998
3.63800001 1.48399997 2.85899997
4.26800013 1.56400001 2.87899995
4.29799986 1.62399995 2.83899999
2.87800002 1.14400005 3.10899997
3.00799990 1.454 2.85899997
2.85800004 0.93400002 3.09899998
4.14799976 1.48399997 2.84899998
3.85800004 1.66400003 2.9289999
3.82800007 1.40400004 2.78900003
4.27799988 1.55400002 2.78900003
3.92799997 1.52400005 2.90899992
4.19799995 1.01400006 3.09899998
4.36800003 1.324 3.10899997
3.86800003 1.64400005 3.14899993
3.53800011 1.55400002 2.95900011
3.26799989 1.37399995 2.78900003
4.35799980 1.40400004 3.06900001
3.46799994 0.954 3.11899996
4.02799988 1.42400002 2.77900004
4.35799980 1.10399997 2.86899996
3.58800006 1.08399999 3.10899997
4.33799982 1.38399994 2.78900003
2.58800006 0.89399999 2.77900004
4.24800014 1.574 2.9289999
3.13800001 1.074 3.10899997
3.54800010 0.85399997 3.00900006
3.70799994 1.18400002 3.10899997
4.07800007 1.43400002 2.87899995
3.51799989 1.08399999 3.11899996
4.12799978 1.44400001 2.85899997
4.28800011 1.61399996 2.87899995
2.60800004 0.94400001 2.76900005
2.86800003 1.40400004 2.78900003
4.21799994 0.96399999 3.09899998
3.76799989 1.47399998 2.87899995
3.73799992 1.14400005 3.09899998
3.08800006 1.36399996 2.78900003
4.01800013 1.454 2.81900001
3.36800003 1.574 2.83899999
3.12800002 1.05400002 3.10899997
3.90799999 1.68400002 2.98900008
3.17799997 0.99400002 3.10899997
2.89800000 1.22399998 3.10899997
4.20800018 1.46399999 2.829
3.20799994 0.884 2.84899998
2.87800002 0.884 3.09899998
3.08800006 0.87400001 2.90899992
3.33800006 1.46399999 2.79900002
2.95799994 1.40400004 2.77900004
4.36800003 1.18400002 3.09899998
3.45799994 1.60399997 2.84899998
3.34800005 1.47399998 2.80900002
2.65799999 0.91399997 2.73900008
4.26800013 1.10399997 3.04900002
4.36800003 1.25399995 3.08899999
2.55800009 1.63399994 2.78900003
3.12800002 0.954 3.10899997
3.82800007 1.67400002 3.12899995
4.17799997 1.36399996 2.78900003
4.11800003 0.94400001 3.09899998
4.35799980 1.44400001 2.84899998
3.78800011 1.64400005 2.90899992
4.07800007 1.35399997 2.78900003
4.33799982 1.59399998 2.83899999
2.99799991 1.05400002 3.10899997
3.03800011 1.574 2.99900007
3.14800000 1.204 2.9289999
4.30800009 1.16400003 2.79900002
3.05800009 1.05400002 2.77900004
3.48799992 1.33399999 2.78900003
3.85800004 1.65400004 2.9289999
4.27799988 0.94400001 2.78900003
4.25799990 0.96399999 3.03900003
4.35799980 1.37399995 2.83899999
4.35799980 1.204 2.829
4.33799982 1.15400004 2.78900003
4.14799976 1.13399994 3.08899999
4.25799990 0.94400001 2.98900008
4.12799978 1.40400004 2.78900003
3.15799999 0.89399999 2.88899994
2.92799997 1.24399996 3.10899997
3.09800005 1.43400002 2.78900003
3.52800012 1.454 2.829
3.50799990 1.12399995 3.10899997
4.13800001 0.80400002 2.78900003
3.53800011 1.574 2.90899992
3.03800011 1.50399995 2.87899995
3.93799996 1.64400005 2.91899991
4.35799980 1.31400001 2.91899991
3.05800009 1.22399998 3.10899997
4.32800007 1.62399995 3.079
3.94799995 1.47399998 2.90899992
4.33799982 1.574 2.83899999
4.39799976 0.90399998 2.9289999
3.06800008 0.86400002 2.93899989
3.18799996 1.03400004 3.10899997
3.32800007 1.50399995 2.83899999
3.53800011 1.63399994 2.91899991
2.86800003 1.01400006 3.09899998
3.33800006 1.51400006 2.84899998
3.38800001 1.01400006 3.10899997
2.57800007 1.38399994 2.77900004
3.34800005 1.41400003 2.78900003
3.76799989 1.38399994 2.78900003
4.00799990 1.454 2.81900001
3.07800007 1.21399999 3.10899997
3.17799997 1.42400002 2.77900004
4.18800020 0.89399999 3.10899997
4.33799982 1.53400004 2.81900001
2.92799997 1.11399996 3.10899997
3.18799996 0.99400002 2.85899997
4.20800018 0.83399999 2.84899998
4.25799990 0.93400002 2.829
3.44799995 1.38399994 2.78900003
3.36800003 1.204 3.10899997
4.21799994 1.11399996 3.079
4.35799980 0.96399999 3.12899995
3.09800005 1.21399999 2.86899996
2.62800002 0.92400002 2.78900003
4.31799984 1.36399996 2.78900003
4.14799976 1.06400001 3.09899998
3.49799991 0.94400001 3.11899996
3.85800004 1.61399996 2.90899992
3.01799989 1.48399997 2.86899996
4.25799990 0.89399999 3.09899998
3.07800007 1.12399995 3.10899997
3.14800000 1.34399998 2.78900003
3.08800006 1.51400006 2.86899996
3.06800008 1.204 2.84899998
4.33799982 1.56400001 2.85899997
3.32800007 1.454 2.78900003
4.35799980 1.08399999 2.84899998
4.25799990 0.96399999 2.89899993
2.89800000 1.40400004 2.77900004
4.23799992 1.47399998 2.829
4.38800001 0.92400002 2.90899992
4.35799980 0.98400003 2.91899991
4.22800016 0.86400002 2.84899998
3.89800000 1.51400006 2.90899992
3.29800010 1.02400005 3.10899997
2.64800000 1.49399996 2.86899996
3.64800000 1.40400004 2.78900003
3.83800006 1.48399997 2.90899992
4.21799994 1.47399998 2.83899999
2.60800004 1.34399998 2.78900003
3.08800006 0.93400002 3.09899998
3.17799997 0.87400001 2.90899992
4.21799994 0.884 2.85899997
4.26800013 1.00399995 2.81900001
4.26800013 1.11399996 2.99900007
4.36800003 1.27400005 2.98900008
4.25799990 1.54400003 2.88899994
3.57800007 1.17400002 3.10899997
3.68799996 1.44400001 2.80900002
3.16799998 1.14400005 2.91899991
3.91799998 1.08399999 3.09899998
3.00799990 0.87400001 2.91899991
4.20800018 0.87400001 3.10899997
3.62800002 1.39400005 2.78900003
3.47799993 1.03400004 3.11899996
4.13800001 1.51400006 2.85899997
3.89800000 1.69400001 2.98900008
2.91799998 0.80400002 3.079
3.81800008 1.67400002 3.11899996
3.34800005 1.43400002 2.78900003
2.60800004 1.36399996 2.78900003
2.98799992 1.33399999 2.78900003
3.48799992 1.62399995 2.86899996
3.75799990 1.64400005 3.12899995
3.92799997 1.34399998 2.78900003
3.03800011 1.01400006 3.10899997
4.23799992 1.22399998 3.05900002
4.29799986 0.84399998 2.829
3.19799995 1.37399995 2.78900003
2.54800010 1.41400003 2.76900005
3.43799996 0.954 3.11899996
3.57800007 1.19400001 3.10899997
4.22800016 0.91399997 2.87899995
4.26800013 1.23399997 2.83899999
3.12800002 1.21399999 3.10899997
4.26800013 1.40400004 2.78900003
4.17799997 0.89399999 3.10899997
4.26800013 0.86400002 3.01900005
4.25799990 0.92400002 2.829
3.23799992 1.01400006 2.9289999
3.23799992 0.89399999 3.10899997
3.59800005 1.49399996 2.83899999
3.80800009 1.42400002 2.77900004
3.94799995 1.62399995 2.91899991
2.64800000 1.46399999 2.79900002
3.06800008 1.16400003 2.83899999
3.93799996 1.38399994 2.78900003
3.82800007 1.65400004 2.91899991
4.35799980 1.09399998 3.08899999
4.29799986 1.61399996 2.78900003
2.91799998 1.204 3.10899997
4.35799980 1.05400002 3.10899997
3.71799994 1.24399996 3.09899998
4.35799980 1.34399998 2.90899992
4.35799980 1.21399999 2.85899997
3.13800001 1.46399999 2.83899999
4.36800003 1.25399995 3.04900002
4.26800013 1.05400002 2.9289999
3.86800003 1.38399994 2.78900003
3.76799989 1.46399999 2.84899998
4.25799990 0.954 2.81900001
2.89800000 0.81400001 2.91899991
3.51799989 1.24399996 3.10899997
2.67799997 0.84399998 2.78900003
3.16799998 1.09399998 2.88899994
2.86800003 1.10399997 3.09899998
4.00799990 1.44400001 2.80900002
4.35799980 1.24399996 2.80900002
3.84800005 1.09399998 3.09899998
4.22800016 0.824 2.83899999
3.13800001 1.12399995 3.10899997
2.63800001 1.56400001 2.91899991
2.56800008 0.81400001 2.76900005
4.08799982 1.04400003 3.09899998
3.86800003 1.43400002 2.77900004
3.70799994 1.16400003 3.10899997
3.98799992 1.06400001 3.09899998
3.28800011 0.98400003 3.10899997
3.41799998 1.09399998 3.10899997
4.13800001 1.43400002 2.77900004
4.26800013 1.16400003 2.9690001
4.25799990 1.53400004 2.83899999
3.96799994 1.44400001 2.89899993
4.04799986 1.43400002 2.77900004
2.64800000 1.53400004 2.86899996
4.36800003 1.22399998 3.09899998
3.96799994 1.35399997 2.78900003
4.36800003 0.97399998 2.85899997
3.85800004 1.43400002 2.78900003
3.11800003 1.14400005 3.10899997
3.14800000 1.06400001 3.10899997
3.34800005 1.14400005 3.10899997
3.22799993 0.99400002 2.90899992
2.68799996 1.50399995 2.88899994
4.40799999 0.85399997 2.9690001
4.16800022 1.05400002 3.08899999
4.32800007 1.60399997 2.89899993
4.35799980 1.41400003 2.97900009
2.75799990 1.37399995 2.79900002
4.26800013 0.89399999 2.94899988
3.31800008 1.01400006 3.10899997
4.18800020 1.12399995 3.079
3.17799997 1.51400006 2.84899998
4.35799980 1.17400002 2.829
4.35799980 1.23399997 2.87899995
3.33800006 1.02400005 3.10899997
4.35799980 1.15400004 2.81900001
4.35799980 1.42400002 3.03900003
3.29800010 1.50399995 2.83899999
2.57800007 1.53400004 2.77900004
4.25799990 0.91399997 3.06900001
3.50799990 1.14400005 3.10899997
3.22799993 0.93400002 3.10899997
4.23799992 1.47399998 2.83899999
3.20799994 1.40400004 2.77900004
2.55800009 1.17400002 2.77900004
4.37799978 0.92400002 2.91899991
3.06800008 1.15400004 2.829
4.35799980 1.22399998 2.79900002
4.25799990 0.884 3.09899998
4.31799984 1.61399996 2.98900008
4.35799980 1.41400003 3.09899998
3.56800008 0.83399999 3.05900002
2.65799999 0.92400002 2.70900011
3.14800000 1.10399997 2.86899996
3.29800010 0.81400001 2.86899996
3.38800001 1.55400002 2.83899999
2.94799995 1.21399999 3.10899997
3.89800000 1.54400003 2.90899992
3.51799989 1.16400003 3.10899997
4.35799980 1.43400002 3.13899994
4.36800003 1.18400002 3.11899996
4.17799997 1.10399997 3.079
4.26800013 1.04400003 2.98900008
4.25799990 0.90399998 3.08899999
4.25799990 1.23399997 3.04900002
2.69799995 0.86400002 2.73900008
4.35799980 1.074 2.79900002
3.48799992 0.884 3.11899996
3.41799998 1.10399997 3.10899997
4.35799980 1.28400004 2.97900009
3.23799992 1.36399996 2.78900003
3.85800004 1.06400001 3.09899998
3.22799993 1.10399997 2.98900008
3.36800003 1.50399995 2.829
3.16799998 1.08399999 2.87899995
2.86800003 1.14400005 3.10899997
4.26800013 1.02400005 2.93899989
3.56800008 0.83399999 2.98900008
3.10800004 0.87400001 3.09899998
3.30800009 0.99400002 3.10899997
2.83800006 1.43400002 2.80900002
4.36800003 1.24399996 3.03900003
4.32800007 1.61399996 2.81900001
3.92799997 1.61399996 2.90899992
4.25799990 0.94400001 3.08899999
3.72799993 1.34399998 2.78900003
4.22800016 1.54400003 2.93899989
3.25799990 1.38399994 2.78900003
3.78800011 1.43400002 2.77900004
4.22800016 1.17400002 3.06900001
4.35799980 1.05400002 3.06900001
4.35799980 1.38399994 2.91899991
3.11800003 1.43400002 2.78900003
3.56800008 0.824 2.91899991
4.25799990 0.99400002 2.88899994
3.28800011 1.62399995 2.91899991
3.32800007 1.55400002 2.84899998
4.35799980 0.98400003 3.06900001
2.65799999 0.80400002 2.77900004
3.28800011 0.824 2.97900009
2.55800009 1.55400002 2.77900004
3.88800001 1.54400003 2.90899992
3.30800009 0.80400002 2.89899993
2.89800000 0.94400001 3.09899998
2.77800012 1.46399999 2.88899994
4.25799990 0.98400003 2.84899998
4.35799980 1.35399997 2.829
3.42799997 0.91399997 3.11899996
3.07800007 1.06400001 2.79900002
3.46799994 0.99400002 3.11899996
4.07800007 1.12399995 3.09899998
3.20799994 0.84399998 2.94899988
4.35799980 1.04400003 3.00900006
4.26800013 1.27400005 2.86899996
3.21799994 1.05400002 2.9289999
3.08800006 1.01400006 3.10899997
4.35799980 1.41400003 2.81900001
4.35799980 1.41400003 3.00900006
3.81800008 1.03400004 3.10899997
3.63800001 1.22399998 3.10899997
4.14799976 1.25399995 3.06900001
3.66799998 1.18400002 3.10899997
3.95799994 1.16400003 3.09899998
3.96799994 1.454 2.83899999
4.33799982 1.61399996 3.06900001
4.24800014 1.58399999 2.94899988
3.14800000 1.36399996 2.78900003
4.23799992 1.49399996 2.84899998
4.11800003 1.454 2.829
3.02800012 1.11399996 2.78900003
4.39799976 0.94400001 2.86899996
4.38800001 0.92400002 2.89899993
4.35799980 1.03400004 3.12899995
4.24800014 1.43400002 2.78900003
3.53800011 0.86400002 2.9690001
4.36800003 1.16400003 3.05900002
3.85800004 1.47399998 2.86899996
3.35800004 1.52400005 2.84899998
4.35799980 1.02400005 3.11899996
3.59800005 1.14400005 3.10899997
4.25799990 1.02400005 3.05900002
3.76799989 1.47399998 2.86899996
3.04800010 1.43400002 2.79900002
4.29799986 1.62399995 2.81900001
2.94799995 0.954 3.09899998
4.35799980 1.46399999 3.06900001
4.35799980 0.99400002 3.079
4.35799980 1.03400004 2.83899999
2.91799998 1.09399998 3.10899997
3.90799999 1.21399999 3.09899998
2.72799993 1.44400001 2.83899999
4.35799980 1.02400005 3.02900004
4.35799980 1.51400006 3.13899994
2.60800004 0.81400001 2.76900005
4.26800013 1.10399997 2.86899996
4.35799980 1.43400002 2.83899999
3.20799994 1.11399996 2.94899988
4.35799980 1.12399995 2.97900009
3.33800006 1.23399997 3.10899997
3.21799994 1.06400001 3.10899997
3.94799995 1.04400003 3.10899997
3.13800001 0.92400002 2.85899997
2.89800000 1.454 2.84899998
3.17799997 0.86400002 2.91899991
4.27799988 1.37399995 2.78900003
4.35799980 1.46399999 3.10899997
3.30800009 1.08399999 3.10899997
4.26800013 0.91399997 2.91899991
4.32800007 1.55400002 2.79900002
4.00799990 1.41400003 2.77900004
3.21799994 0.884 2.88899994
4.26800013 0.86400002 3.00900006
4.04799986 1.46399999 2.88899994
3.14800000 1.11399996 2.86899996
4.35799980 1.09399998 2.85899997
2.61800003 0.91399997 2.78900003
3.01799989 1.58399999 3.03900003
3.62800002 1.37399995 2.78900003
3.28800011 1.59399998 2.89899993
3.38800001 1.324 2.78900003
4.35799980 1.42400002 3.10899997
3.06800008 1.24399996 3.10899997
4.35799980 1.074 2.85899997
3.76799989 1.43400002 2.77900004
3.88800001 1.64400005 2.91899991
2.99799991 0.80400002 3.00900006
4.35799980 1.09399998 2.83899999
3.01799989 0.954 3.09899998
3.10800004 1.13399994 3.10899997
3.88800001 1.42400002 2.77900004
3.65799999 1.24399996 3.10899997
3.72799993 1.22399998 3.09899998
3.49799991 1.53400004 2.829
4.07800007 1.44400001 2.79900002
3.80800009 1.324 2.79900002
3.82800007 1.574 2.90899992
3.05800009 1.01400006 3.10899997
3.42799997 1.04400003 3.10899997
2.83800006 1.23399997 3.10899997
2.78800011 1.44400001 2.829
4.06799984 1.54400003 2.88899994
4.35799980 1.51400006 3.09899998
2.57800007 1.44400001 2.77900004
4.19799995 0.98400003 3.09899998
4.32800007 1.29400003 2.78900003
3.03800011 1.54400003 2.93899989
3.85800004 1.37399995 2.78900003
3.52800012 1.53400004 2.85899997
2.92799997 0.884 3.09899998
3.17799997 1.53400004 2.86899996
2.97799993 0.954 3.09899998
3.30800009 1.55400002 2.85899997
4.29799986 1.09399998 2.79900002
3.95799994 1.43400002 2.77900004
4.25799990 0.97399998 2.94899988
3.13800001 1.50399995 2.85899997
4.04799986 0.80400002 2.76900005
4.32800007 1.54400003 2.80900002
3.00799990 1.49399996 2.87899995
3.81800008 1.64400005 2.90899992
3.25799990 1.05400002 2.98900008
4.20800018 1.49399996 2.86899996
4.35799980 1.46399999 3.13899994
4.03800011 0.80400002 2.77900004
3.77800012 1.46399999 2.85899997
4.35799980 1.02400005 3.10899997
4.35799980 1.43400002 2.88899994
2.70799994 1.36399996 2.79900002
3.16799998 1.24399996 3.10899997
4.21799994 0.85399997 2.86899996
3.05800009 0.87400001 3.09899998
3.03800011 1.06400001 2.75900006
3.00799990 0.98400003 3.09899998
4.28800011 0.884 2.829
3.73799992 1.64400005 3.11899996
3.62800002 1.43400002 2.78900003
3.66799998 1.43400002 2.77900004
3.23799992 1.46399999 2.80900002
3.80800009 1.11399996 3.09899998
3.86800003 1.65400004 3.13899994
3.51799989 1.59399998 2.86899996
4.08799982 1.574 2.9289999
4.35799980 1.51400006 3.05900002
4.36800003 0.97399998 2.87899995
2.91799998 1.11399996 3.10899997
3.98799992 1.46399999 2.85899997
3.79800010 1.24399996 3.09899998
3.15799999 1.14400005 2.89899993
4.25799990 1.09399998 3.06900001
3.61800003 1.38399994 2.78900003
3.60800004 1.324 2.78900003
3.68799996 1.074 3.09899998
3.17799997 1.52400005 2.85899997
4.35799980 1.00399995 2.85899997
2.68799996 0.86400002 2.76900005
3.66799998 1.454 2.829
2.89800000 0.87400001 3.09899998
3.39800000 0.96399999 3.10899997
3.39800000 1.22399998 3.10899997
4.35799980 1.08399999 3.05900002
4.35799980 0.954 2.90899992
4.26800013 1.18400002 2.83899999
3.45799994 1.42400002 2.78900003
3.63800001 1.42400002 2.77900004
4.37799978 0.98400003 2.80900002
4.26800013 1.13399994 2.83899999
4.25799990 0.98400003 2.87899995
4.09800005 0.824 2.81900001
4.36800003 1.35399997 3.13899994
4.35799980 1.454 2.83899999
4.28800011 1.59399998 2.80900002
3.07800007 1.08399999 2.81900001
3.87800002 1.49399996 2.90899992
3.41799998 1.35399997 2.78900003
3.20799994 1.09399998 2.94899988
4.35799980 1.05400002 2.87899995
3.30800009 0.89399999 3.10899997
2.55800009 1.44400001 2.76900005
3.74799991 1.64400005 3.12899995
4.05800009 0.81400001 2.78900003
3.57800007 1.22399998 3.10899997
2.88800001 1.06400001 3.09899998
4.33799982 1.40400004 2.78900003
3.53800011 1.46399999 2.84899998
4.28800011 1.59399998 2.78900003
3.59800005 1.074 3.10899997
4.04799986 0.80400002 2.75900006
2.72799993 1.34399998 2.78900003
3.88800001 1.04400003 3.09899998
2.95799994 1.19400001 3.10899997
4.23799992 0.93400002 2.88899994
4.32800007 1.52400005 2.80900002
4.34800005 1.56400001 2.85899997
3.48799992 1.36399996 2.78900003
4.06799984 1.01400006 3.09899998
4.09800005 1.49399996 2.87899995
3.17799997 1.17400002 2.94899988
4.28800011 1.34399998 2.78900003
2.73799992 1.38399994 2.79900002
3.29800010 1.58399999 2.86899996
2.96799994 1.47399998 2.87899995
4.31799984 1.60399997 2.97900009
3.89800000 1.10399997 3.09899998
2.56800008 1.61399996 2.78900003
3.16799998 1.44400001 2.81900001
2.96799994 1.43400002 2.79900002
4.41800022 0.884 2.9289999
4.35799980 1.41400003 3.04900002
2.87800002 1.44400001 2.83899999
4.35799980 1.35399997 2.95900011
4.21799994 0.80400002 2.80900002
4.13800001 1.11399996 3.08899999
4.35799980 1.55400002 3.03900003
3.95799994 1.39400005 2.78900003
4.06799984 0.92400002 3.09899998
2.94799995 0.83399999 3.09899998
3.80800009 0.81400001 2.91899991
3.15799999 0.93400002 3.10899997
4.05800009 1.41400003 2.77900004
4.04799986 1.42400002 2.77900004
3.23799992 0.86400002 2.9289999
4.09800005 1.01400006 3.09899998
2.94799995 0.97399998 3.09899998
3.84800005 1.66400003 2.94899988
4.30800009 1.41400003 2.77900004
3.57800007 1.46399999 2.84899998
4.08799982 1.36399996 2.78900003
3.74799991 1.454 2.829
3.04800010 1.44400001 2.829
3.98799992 1.02400005 3.10899997
4.25799990 0.91399997 2.97900009
3.42799997 0.89399999 3.11899996
3.34800005 1.04400003 3.10899997
2.97799993 0.89399999 3.09899998
4.37799978 0.884 2.97900009
3.06800008 1.19400001 3.10899997
4.26800013 1.22399998 2.87899995
3.03800011 1.38399994 2.78900003
2.69799995 0.84399998 2.77900004
4.35799980 1.23399997 2.84899998
3.55800009 1.23399997 3.10899997
4.01800013 1.44400001 2.80900002
3.86800003 1.69400001 3.01900005
4.33799982 1.59399998 3.03900003
4.33799982 1.63399994 3.12899995
3.98799992 1.40400004 2.78900003
4.27799988 0.87400001 2.95900011
3.15799999 0.92400002 2.85899997
4.33799982 1.36399996 2.77900004
3.86800003 1.69400001 2.99900007
4.35799980 1.09399998 2.9289999
4.35799980 1.43400002 3.04900002
3.88800001 1.44400001 2.79900002
3.09800005 1.04400003 2.80900002
4.25799990 0.94400001 2.9690001
4.23799992 1.574 2.94899988
2.61800003 1.37399995 2.78900003
2.98799992 1.43400002 2.81900001
2.55800009 1.12399995 2.78900003
3.07800007 1.15400004 2.83899999
4.35799980 1.00399995 2.95900011
4.20800018 0.90399998 2.86899996
3.14800000 1.00399995 2.829
4.35799980 1.22399998 2.829
2.91799998 0.98400003 3.09899998
3.26799989 1.46399999 2.80900002
3.40799999 0.91399997 3.10899997
3.85800004 1.63399994 2.90899992
3.82800007 1.16400003 3.09899998
3.21799994 0.93400002 3.10899997
4.23799992 0.97399998 2.84899998
4.05800009 1.574 2.91899991
2.95799994 0.81400001 2.99900007
3.97799993 1.46399999 2.86899996
3.15799999 1.23399997 3.10899997
4.04799986 1.14400005 3.09899998
4.08799982 1.15400004 3.08899999
3.22799993 1.10399997 3.10899997
3.09800005 1.39400005 2.78900003
4.25799990 0.98400003 2.98900008
3.86800003 1.41400003 2.78900003
4.35799980 1.01400006 3.03900003
4.33799982 1.24399996 2.78900003
2.59800005 1.35399997 2.78900003
3.92799997 1.39400005 2.78900003
4.35799980 0.98400003 3.03900003
4.21799994 0.884 2.86899996
3.05800009 1.17400002 3.10899997
4.14799976 1.18400002 3.079
4.35799980 1.35399997 2.84899998
2.89800000 0.97399998 3.09899998
3.81800008 1.454 2.829
4.13800001 0.97399998 3.09899998
3.07800007 1.38399994 2.78900003
4.35799980 1.06400001 3.08899999
3.11800003 0.84399998 3.09899998
4.35799980 1.01400006 2.91899991
4.36800003 1.30400002 3.10899997
2.64800000 0.91399997 2.77900004
3.30800009 1.34399998 2.78900003
4.35799980 1.28400004 2.829
3.20799994 0.86400002 3.09899998
4.01800013 1.16400003 3.09899998
4.14799976 0.80400002 2.77900004
3.78800011 1.03400004 3.09899998
3.38800001 1.47399998 2.79900002
3.37800002 1.56400001 2.83899999
4.15799999 0.954 3.09899998
2.95799994 1.10399997 3.10899997
4.35799980 1.49399996 2.90899992
4.12799978 0.92400002 3.09899998
3.69799995 1.324 2.78900003
2.99799991 1.204 3.10899997
4.00799990 0.97399998 3.10899997
3.15799999 1.43400002 2.79900002
4.26800013 1.074 2.89899993
2.55800009 1.02400005 2.78900003
4.26800013 1.08399999 3.01900005
4.25799990 1.00399995 2.9690001
3.10800004 1.324 2.78900003
2.98799992 1.04400003 3.10899997
4.35799980 1.16400003 2.9690001
3.54800010 1.34399998 2.78900003
4.03800011 1.39400005 2.78900003
3.34800005 1.54400003 2.84899998
4.13800001 1.02400005 3.09899998
2.60800004 1.62399995 2.80900002
2.93799996 0.97399998 3.09899998
4.25799990 0.99400002 2.85899997
3.27800012 1.23399997 3.10899997
3.79800010 1.05400002 3.10899997
3.23799992 1.10399997 3.10899997
3.17799997 1.44400001 2.80900002
2.90799999 1.324 2.78900003
4.17799997 1.06400001 3.08899999
4.26800013 1.074 3.05900002
4.06799984 1.10399997 3.09899998
3.20799994 1.39400005 2.78900003
4.35799980 1.34399998 3.09899998
3.33800006 0.80400002 2.95900011
3.92799997 1.454 2.829
3.00799990 0.954 3.09899998
3.91799998 1.05400002 3.10899997
4.35799980 1.46399999 2.9690001
3.60800004 1.22399998 3.10899997
3.89800000 1.324 2.79900002
3.57800007 1.24399996 3.10899997
4.13800001 1.454 2.81900001
3.51799989 1.14400005 3.09899998
2.99799991 1.574 3.02900004
3.00799990 1.40400004 2.77900004
3.91799998 1.13399994 3.09899998
4.28800011 1.31400001 2.80900002
4.17799997 1.08399999 3.08899999
3.01799989 1.24399996 3.10899997
3.65799999 1.49399996 2.85899997
4.18800020 1.204 3.06900001
3.03800011 1.19400001 3.10899997
3.52800012 1.05400002 3.11899996
4.14799976 1.41400003 2.77900004
3.87800002 1.62399995 2.90899992
3.88800001 1.21399999 3.09899998
4.35799980 1.00399995 3.00900006
4.08799982 1.50399995 2.87899995
3.09800005 1.324 2.78900003
4.18800020 1.04400003 3.08899999
4.35799980 1.27400005 2.80900002
3.98799992 1.454 2.86899996
4.08799982 0.80400002 2.78900003
4.18800020 1.09399998 3.079
3.42799997 1.52400005 2.829
3.15799999 1.05400002 3.10899997
3.47799993 1.13399994 3.10899997
2.84800005 1.454 2.84899998
3.99799991 1.46399999 2.84899998
3.00799990 1.44400001 2.83899999
4.35799980 1.52400005 2.95900011
4.29799986 1.43400002 2.78900003
3.43799996 1.40400004 2.78900003
4.35799980 1.12399995 2.76900005
3.87800002 1.53400004 2.90899992
4.09800005 1.06400001 3.09899998
4.35799980 1.41400003 2.94899988
3.00799990 0.824 3.09899998
4.29799986 1.61399996 2.79900002
2.88800001 1.454 2.85899997
2.98799992 1.14400005 2.76900005
2.60800004 1.43400002 2.78900003
4.25799990 0.86400002 3.05900002
3.15799999 0.85399997 2.94899988
2.76799989 1.324 2.78900003
3.00799990 1.10399997 2.76900005
3.87800002 1.704 3.08899999
2.97799993 1.47399998 2.87899995
2.58800006 1.28400004 2.78900003
3.15799999 1.18400002 2.9289999
4.28800011 1.40400004 2.77900004
3.74799991 1.47399998 2.87899995
4.08799982 1.03400004 3.09899998
3.08800006 1.204 2.84899998
3.19799995 1.11399996 2.93899989
4.12799978 1.53400004 2.88899994
4.25799990 0.824 2.84899998
3.04800010 0.90399998 3.09899998
3.12800002 0.93400002 3.10899997
4.36800003 1.24399996 2.9289999
2.99799991 0.99400002 3.09899998
4.16800022 0.99400002 3.09899998
3.21799994 1.39400005 2.78900003
2.63800001 1.574 2.87899995
4.13800001 1.22399998 3.06900001
4.02799988 1.21399999 3.09899998
3.13800001 0.97399998 3.10899997
2.63800001 1.59399998 2.88899994
3.14800000 0.94400001 3.10899997
2.80800009 1.42400002 2.80900002
4.08799982 0.94400001 3.09899998
2.89800000 1.05400002 3.09899998
4.35799980 1.44400001 3.02900004
4.16800022 0.824 2.83899999
2.63800001 1.58399999 2.89899993
4.16800022 1.03400004 3.09899998
3.06800008 1.12399995 2.829
3.51799989 1.54400003 2.86899996
4.38800001 0.89399999 2.94899988
3.82800007 1.49399996 2.90899992
4.35799980 1.52400005 2.90899992
4.35799980 1.39400005 2.9289999
2.96799994 1.16400003 3.10899997
4.25799990 1.00399995 2.97900009
4.27799988 0.94400001 2.81900001
4.35799980 1.38399994 2.86899996
4.09800005 0.81400001 2.79900002
4.13800001 1.44400001 2.80900002
2.97799993 1.44400001 2.83899999
4.27799988 0.954 2.80900002
3.21799994 1.02400005 2.90899992
4.00799990 1.05400002 3.09899998
4.07800007 1.48399997 2.87899995
4.25799990 1.49399996 2.80900002
2.58800006 0.96399999 2.78900003
4.27799988 0.84399998 3.01900005
3.46799994 1.54400003 2.81900001
4.35799980 1.50399995 2.99900007
4.35799980 1.52400005 3.06900001
3.88800001 1.39400005 2.78900003
4.12799978 1.56400001 2.93899989
3.27800012 0.87400001 3.10899997
2.97799993 0.94400001 3.09899998
3.92799997 1.47399998 2.87899995
4.35799980 0.91399997 2.9690001
4.35799980 1.36399996 3.09899998
4.35799980 1.19400001 2.76900005
3.91799998 1.37399995 2.78900003
3.07800007 0.85399997 2.94899988
3.89800000 1.68400002 2.98900008
3.22799993 0.87400001 3.09899998
3.39800000 1.19400001 3.10899997
3.92799997 1.41400003 2.77900004
3.34800005 0.80400002 2.95900011
4.27799988 1.574 2.829
4.35799980 1.324 2.93899989
2.83800006 1.46399999 2.87899995
4.36800003 1.10399997 3.12899995
2.64800000 1.52400005 2.84899998
3.40799999 1.01400006 3.10899997
4.26800013 1.03400004 2.84899998
2.70799994 1.43400002 2.829
2.97799993 1.24399996 3.10899997
4.35799980 0.96399999 2.99900007
3.14800000 1.01400006 3.10899997
3.17799997 1.00399995 2.86899996
4.27799988 1.15400004 2.829
3.22799993 0.87400001 2.89899993
2.58800006 1.55400002 2.78900003
2.69799995 1.37399995 2.79900002
4.31799984 1.03400004 2.76900005
3.31800008 0.80400002 2.93899989
4.28800011 1.324 2.79900002
4.25799990 1.17400002 3.05900002
4.20800018 0.92400002 3.09899998
2.63800001 1.55400002 2.91899991
3.27800012 0.83399999 2.86899996
3.55800009 1.56400001 2.9289999
3.85800004 1.10399997 3.09899998
4.35799980 1.40400004 2.86899996
4.35799980 0.99400002 2.90899992
3.04800010 1.21399999 2.83899999
3.12800002 1.16400003 2.87899995
3.18799996 1.24399996 3.10899997
3.21799994 0.87400001 2.90899992
4.26800013 1.01400006 2.80900002
4.21799994 1.26400006 3.05900002
3.72799993 1.14400005 3.10899997
4.26800013 1.43400002 2.79900002
3.68799996 1.43400002 2.77900004
3.51799989 0.91399997 3.11899996
4.26800013 1.23399997 2.97900009
3.57800007 1.38399994 2.78900003
4.06799984 1.46399999 2.83899999
2.66799998 1.50399995 2.87899995
4.06799984 1.03400004 3.09899998
4.35799980 1.02400005 2.80900002
3.22799993 1.43400002 2.78900003
3.58800006 0.81400001 2.97900009
4.26800013 1.09399998 3.03900003
4.34800005 1.54400003 2.85899997
3.51799989 1.36399996 2.78900003
4.25799990 0.93400002 2.90899992
4.25799990 0.89399999 2.95900011
4.36800003 1.13399994 3.09899998
3.32800007 1.40400004 2.78900003
4.23799992 0.98400003 3.08899999
3.53800011 1.35399997 2.78900003
3.09800005 1.204 2.85899997
3.94799995 1.48399997 2.90899992
3.10800004 1.21399999 2.87899995
2.58800006 0.97399998 2.75900006
3.65799999 1.074 3.09899998
4.07800007 1.11399996 3.09899998
4.09800005 1.43400002 2.78900003
3.32800007 1.52400005 2.84899998
3.79800010 1.47399998 2.85899997
3.68799996 1.46399999 2.85899997
3.79800010 1.324 2.79900002
2.71799994 1.48399997 2.88899994
4.26800013 1.14400005 2.90899992
3.54800010 0.85399997 2.98900008
3.85800004 1.17400002 3.09899998
3.39800000 1.454 2.79900002
4.01800013 1.34399998 2.78900003
2.54800010 1.37399995 2.76900005
3.24799991 1.01400006 3.10899997
3.22799993 1.03400004 2.9289999
3.19799995 1.04400003 2.88899994
4.25799990 0.89399999 3.05900002
3.39800000 1.51400006 2.829
4.35799980 1.09399998 3.06900001
2.99799991 1.44400001 2.84899998
4.04799986 0.98400003 3.09899998
2.68799996 0.85399997 2.75900006
3.06800008 1.204 3.10899997
3.56800008 0.83399999 3.02900004
4.35799980 0.97399998 3.08899999
3.78800011 1.62399995 2.90899992
4.26800013 1.02400005 2.90899992
4.31799984 1.53400004 2.77900004
3.23799992 0.99400002 2.9289999
4.27799988 0.92400002 2.81900001
4.26800013 1.06400001 2.91899991
3.52800012 1.47399998 2.81900001
2.75799990 1.324 2.78900003
3.94799995 1.42400002 2.77900004
2.80800009 1.39400005 2.79900002
4.25799990 0.93400002 2.9690001
3.18799996 1.11399996 3.10899997
4.14799976 1.55400002 2.9289999
3.26799989 0.84399998 2.90899992
3.57800007 0.824 3.04900002
3.87800002 1.074 3.09899998
3.63800001 1.34399998 2.78900003
4.25799990 1.60399997 2.9690001
4.34800005 1.26400006 2.77900004
3.80800009 1.63399994 2.90899992
2.91799998 0.93400002 3.09899998
2.56800008 1.64400005 2.79900002
2.64800000 0.884 2.78900003
3.42799997 1.13399994 3.10899997
4.16800022 1.51400006 2.87899995
3.06800008 1.06400001 3.10899997
2.97799993 0.80400002 2.95900011
4.27799988 1.574 2.81900001
4.04799986 1.454 2.829
4.14799976 1.204 3.079
3.39800000 0.98400003 3.10899997
3.97799993 1.46399999 2.83899999
3.17799997 1.09399998 3.10899997
3.17799997 1.13399994 3.10899997
3.71799994 1.324 2.79900002
2.90799999 1.35399997 2.78900003
3.12800002 1.03400004 2.83899999
4.28800011 0.87400001 2.829
3.19799995 0.87400001 2.91899991
4.26800013 1.11399996 2.90899992
3.21799994 1.15400004 2.99900007
3.92799997 1.19400001 3.09899998
3.64800000 1.13399994 3.10899997
4.26800013 1.60399997 2.9289999
3.78800011 1.17400002 3.09899998
3.69799995 1.43400002 2.77900004
2.63800001 1.574 2.89899993
4.16800022 1.14400005 3.079
4.27799988 0.824 2.83899999
4.14799976 1.38399994 2.78900003
4.25799990 0.96399999 2.88899994
3.31800008 1.58399999 2.84899998
3.75799990 1.42400002 2.77900004
2.57800007 1.30400002 2.77900004
3.51799989 1.49399996 2.80900002
4.08799982 1.204 3.08899999
3.00799990 1.38399994 2.78900003
4.26800013 1.15400004 3.01900005
3.23799992 0.92400002 3.10899997
3.11800003 1.22399998 3.10899997
4.20800018 0.96399999 2.85899997
4.36800003 1.204 3.03900003
2.76799989 1.37399995 2.79900002
2.59800005 1.31400001 2.78900003
4.25799990 0.93400002 3.00900006
3.38800001 1.06400001 3.10899997
3.87800002 1.15400004 3.09899998
3.13800001 0.81400001 3.09899998
3.68799996 1.34399998 2.78900003
4.35799980 1.11399996 2.9289999
4.26800013 1.56400001 2.829
3.84800005 1.19400001 3.09899998
3.83800006 1.61399996 2.90899992
3.29800010 1.12399995 3.10899997
4.29799986 1.01400006 2.77900004
3.19799995 0.98400003 3.10899997
4.14799976 1.46399999 2.85899997
3.41799998 0.86400002 3.11899996
3.23799992 1.53400004 2.86899996
3.23799992 1.06400001 2.95900011
2.97799993 0.81400001 3.01900005
3.36800003 1.49399996 2.81900001
3.69799995 1.37399995 2.78900003
3.17799997 1.06400001 2.87899995
4.11800003 1.11399996 3.09899998
3.33800006 0.93400002 3.10899997
3.86800003 1.48399997 2.88899994
4.35799980 1.46399999 2.93899989
4.35799980 1.15400004 2.91899991
2.68799996 0.80400002 2.77900004
4.08799982 1.43400002 2.77900004
4.33799982 1.25399995 2.78900003
2.68799996 1.454 2.84899998
4.21799994 0.96399999 2.83899999
3.19799995 0.90399998 2.86899996
3.97799993 1.454 2.88899994
3.86800003 1.704 3.079
4.08799982 1.21399999 3.08899999
2.59800005 1.39400005 2.77900004
2.91799998 0.94400001 3.09899998
2.54800010 1.49399996 2.76900005
3.75799990 1.46399999 2.85899997
3.15799999 1.05400002 2.85899997
4.28800011 1.61399996 2.84899998
2.66799998 0.884 2.73900008
2.73799992 1.47399998 2.88899994
4.03800011 1.44400001 2.86899996
3.35800004 1.35399997 2.78900003
3.33800006 1.074 3.10899997
3.73799992 1.18400002 3.09899998
3.79800010 1.66400003 3.12899995
3.56800008 0.83399999 3.06900001
4.25799990 1.59399998 2.98900008
4.35799980 1.44400001 2.86899996
3.74799991 1.324 2.79900002
3.26799989 0.83399999 2.95900011
2.96799994 1.46399999 2.87899995
3.05800009 0.86400002 2.91899991
3.00799990 1.58399999 3.04900002
4.22800016 1.324 2.79900002
3.23799992 0.85399997 2.84899998
3.42799997 1.59399998 2.829
3.27800012 1.03400004 2.99900007
2.69799995 0.85399997 2.75900006
3.31800008 0.81400001 2.9690001
2.92799997 1.33399999 2.78900003
2.59800005 1.47399998 2.78900003
3.23799992 0.84399998 3.10899997
4.18800020 1.43400002 2.83899999
2.86800003 0.81400001 3.08899999
4.09800005 0.97399998 3.09899998
4.26800013 1.28400004 2.87899995
4.25799990 1.01400006 2.98900008
4.07800007 1.05400002 3.09899998
2.84800005 1.06400001 3.09899998
3.25799990 0.824 2.97900009
3.37800002 1.33399999 2.78900003
4.35799980 1.44400001 2.91899991
2.71799994 1.49399996 2.89899993
4.35799980 1.35399997 2.79900002
4.35799980 1.38399994 2.93899989
3.20799994 1.06400001 3.10899997
4.35799980 1.06400001 3.11899996
2.67799997 0.824 2.77900004
3.82800007 1.64400005 3.14899993
2.93799996 0.84399998 3.09899998
3.10800004 1.12399995 2.84899998
4.01800013 1.42400002 2.77900004
3.17799997 1.46399999 2.829
3.90799999 1.15400004 3.09899998
3.16799998 0.91399997 2.85899997
4.36800003 1.18400002 3.06900001
3.91799998 1.18400002 3.09899998
4.35799980 1.10399997 2.81900001
4.23799992 0.87400001 2.84899998
3.38800001 0.97399998 3.10899997
4.25799990 0.97399998 2.81900001
4.06799984 1.16400003 3.09899998
4.01800013 1.04400003 3.09899998
4.36800003 1.11399996 3.06900001
3.40799999 1.50399995 2.81900001
3.86800003 1.324 2.79900002
3.08800006 1.15400004 2.83899999
3.24799991 0.85399997 2.87899995
4.36800003 1.21399999 3.08899999
4.20800018 0.86400002 2.85899997
2.71799994 1.43400002 2.83899999
3.82800007 1.39400005 2.78900003
3.86800003 1.66400003 2.94899988
3.07800007 0.86400002 2.9289999
4.31799984 1.10399997 2.78900003
2.63800001 1.52400005 2.80900002
4.34800005 1.58399999 3.079
4.00799990 1.454 2.90899992
3.34800005 1.574 2.83899999
3.17799997 1.17400002 2.95900011
2.74799991 1.324 2.78900003
2.84800005 1.11399996 3.09899998
3.95799994 1.454 2.829
4.26800013 1.25399995 2.97900009
4.25799990 0.99400002 2.99900007
2.94799995 0.824 3.09899998
4.35799980 1.324 2.81900001
3.23799992 1.43400002 2.78900003
2.90799999 1.44400001 2.829
4.25799990 0.94400001 2.86899996
3.89800000 1.61399996 2.90899992
4.24800014 0.96399999 2.829
4.36800003 1.23399997 2.98900008
4.26800013 0.92400002 2.89899993
3.93799996 1.41400003 2.77900004
4.26800013 1.26400006 2.84899998
4.24800014 1.04400003 3.079
2.99799991 1.43400002 2.79900002
4.11800003 1.49399996 2.86899996
3.87800002 1.05400002 3.09899998
3.65799999 1.09399998 3.10899997
2.85800004 0.94400001 3.09899998
4.15799999 1.13399994 3.079
3.27800012 1.61399996 2.91899991
3.71799994 1.34399998 2.78900003
2.61800003 1.324 2.78900003
2.86800003 1.454 2.84899998
3.37800002 0.86400002 3.10899997
4.35799980 1.08399999 2.9690001
4.11800003 1.44400001 2.83899999
2.98799992 1.43400002 2.80900002
3.70799994 1.324 2.79900002
4.14799976 1.24399996 3.06900001
3.80800009 1.09399998 3.09899998
3.55800009 0.84399998 3.03900003
4.02799988 1.46399999 2.89899993
2.62800002 1.37399995 2.78900003
4.33799982 1.60399997 3.079
2.89800000 0.81400001 2.90899992
3.86800003 1.67400002 2.95900011
4.29799986 0.824 2.83899999
4.26800013 1.04400003 2.90899992
2.80800009 1.41400003 2.79900002
3.15799999 1.37399995 2.78900003
2.72799993 0.81400001 2.78900003
4.35799980 1.06400001 2.98900008
3.34800005 1.21399999 3.10899997
4.22800016 0.954 2.86899996
3.14800000 1.17400002 2.90899992
4.11800003 0.80400002 2.78900003
3.39800000 1.47399998 2.79900002
4.19799995 1.22399998 3.05900002
3.00799990 1.47399998 2.86899996
4.35799980 1.30400002 3.02900004
2.90799999 1.03400004 3.09899998
4.26800013 1.574 2.89899993
2.83800006 1.37399995 2.78900003
3.27800012 0.83399999 2.89899993
3.93799996 1.324 2.79900002
2.88800001 1.09399998 3.09899998
4.01800013 0.98400003 3.09899998
4.35799980 1.43400002 3.02900004
3.72799993 1.13399994 3.10899997
3.05800009 0.84399998 2.91899991
3.17799997 1.06400001 3.10899997
4.27799988 0.94400001 2.79900002
4.35799980 1.04400003 2.90899992
3.88800001 1.63399994 2.90899992
4.33799982 1.56400001 2.9289999
3.85800004 1.39400005 2.78900003
3.13800001 1.23399997 3.10899997
2.57800007 1.65400004 2.79900002
4.33799982 1.61399996 3.13899994
3.09800005 1.34399998 2.78900003
4.35799980 0.954 2.98900008
3.11800003 1.09399998 3.10899997
3.10800004 1.18400002 3.10899997
3.43799996 1.46399999 2.80900002
3.33800006 1.39400005 2.78900003
3.87800002 1.09399998 3.09899998
2.59800005 1.61399996 2.80900002
3.71799994 1.17400002 3.09899998
3.71799994 1.62399995 3.12899995
3.96799994 1.38399994 2.78900003
3.09800005 1.54400003 2.89899993
4.03800011 1.08399999 3.09899998
4.35799980 1.39400005 2.89899993
4.26800013 0.81400001 2.83899999
2.74799991 1.43400002 2.81900001
3.44799995 1.40400004 2.78900003
4.18800020 0.83399999 2.84899998
2.60800004 0.87400001 2.77900004
4.35799980 1.49399996 2.89899993
4.21799994 1.19400001 3.06900001
2.62800002 0.92400002 2.77900004
3.04800010 1.34399998 2.78900003
3.82800007 1.53400004 2.90899992
3.19799995 1.18400002 3.10899997
