# .PCD v0.7 - Point Cloud Data file format
VERSION 0.7
FIELDS x y z
SIZE 4 4 4
TYPE F F F
COUNT 1 1 1
WIDTH 1550
HEIGHT 1
VIEWPOINT 0 0 0 1 0 0 0
POINTS 1550
DATA ascii
2.15799999 1.66400003 0.229
0.37799999 1.93400002 0.34900001
0.60799998 1.47399998 0.289
1.72800004 1.74399996 0.39899999
2.03800011 1.78400004 0.219
2.00799990 1.74399996 0.31900001
0.80800003 1.73399997 0.109
2.15799999 1.24399996 0.089
1.76800001 1.73399997 0.149
2.16799998 1.78400004 0.37900001
0.46799999 1.50399995 0.219
2.13800001 1.67400002 0.40900001
0.48800001 1.77400005 0.39899999
1.26800001 1.74399996 0.169
1.55799997 1.35399997 0.419
0.97799999 1.74399996 0.23899999
0.47799999 1.53400004 0.149
0.74800003 1.73399997 0.199
1.89800000 1.38399994 0.419
0.54799998 1.25399995 0.069
2.06800008 1.86399996 0.17900001
0.63800001 1.324 0.39899999
2.07800007 1.73399997 0.169
2.04800010 1.74399996 0.289
1.55799997 1.42400002 0.40900001
0.91799998 1.27400005 0.079
1.91799998 1.72399998 0.069
1.87800002 1.33399999 0.359
1.10800004 1.73399997 0.109
0.85799998 1.43400002 0.40900001
0.66799998 1.26400006 0.079
0.46799999 1.84399998 0.36899999
0.33800000 1.96399999 0.37900001
0.88800001 1.73399997 0.149
1.22800004 1.74399996 0.229
2.08800006 1.60399997 0.099
2.02800012 1.38399994 0.419
0.68800002 1.73399997 0.31900001
1.52800000 1.74399996 0.23899999
1.74800003 1.41400003 0.34900001
0.97799999 1.79400003 0.37900001
1.64800000 1.43400002 0.15899999
0.97799999 1.73399997 0.119
1.82799995 1.33399999 0.34900001
1.34800005 1.33399999 0.40900001
0.78799999 1.74399996 0.119
0.47799999 1.71399999 0.089
0.43799999 1.69400001 0.199
0.61799997 1.73399997 0.229
0.50800002 1.42400002 0.40900001
1.73800004 1.89400005 0.33899999
2.11800003 1.71399999 0.259
1.69799995 1.74399996 0.30899999
0.78799999 1.96399999 0.079
2.14800000 1.88399994 0.34900001
2.15799999 1.26400006 0.389
0.83800000 1.42400002 0.419
0.98799998 1.74399996 0.229
0.50800002 1.96399999 0.099
1.08800006 1.43400002 0.37900001
2.04800010 1.71399999 0.219
1.26800001 1.27400005 0.079
0.88800001 1.74399996 0.219
0.92799997 2.02399993 0.089
1.14800000 1.72399998 0.099
1.58800006 1.42400002 0.34900001
0.45800000 1.47399998 0.289
2.06800008 1.73399997 0.33899999
0.45800000 1.24399996 0.079
0.35800001 1.49399996 0.419
0.77800000 1.80400002 0.389
1.77800000 1.42400002 0.23899999
1.50800002 1.74399996 0.289
1.72800004 1.33399999 0.36899999
1.32799995 1.74399996 0.229
0.55800003 1.73399997 0.289
0.56800002 1.62399995 0.079
2.07800007 1.64400005 0.389
0.47799999 1.48399997 0.33899999
1.72800004 1.72399998 0.099
2.02800012 1.41400003 0.389
1.25800002 1.81400001 0.36899999
2.13800001 0.99400002 0.389
1.85800004 1.824 0.36899999
0.84799999 1.94400001 0.069
1.50800002 1.74399996 0.40900001
1.52800000 1.74399996 0.37900001
1.21800005 1.73399997 0.109
0.49800000 1.50399995 0.189
0.62800002 1.73399997 0.15899999
0.54799998 1.76400006 0.40900001
1.28799999 1.74399996 0.37900001
1.97800004 1.81400001 0.359
1.08800006 1.74399996 0.259
0.43799999 1.71399999 0.17900001
0.37799999 1.96399999 0.109
1.80799997 1.42400002 0.219
0.49800000 1.50399995 0.259
0.96799999 1.73399997 0.15899999
1.39800000 1.73399997 0.23899999
1.43799996 1.80400002 0.36899999
2.15799999 1.67400002 0.419
0.84799999 1.74399996 0.139
0.59799999 1.454 0.36899999
0.60799998 1.73399997 0.359
1.51800001 1.454 0.249
0.62800002 1.56400001 0.079
2.08800006 1.87399995 0.15899999
1.18799996 1.324 0.39899999
1.42799997 1.76400006 0.39899999
1.67799997 1.74399996 0.26899999
1.74800003 1.41400003 0.39899999
0.74800003 1.72399998 0.20900001
1.77800000 1.41400003 0.419
2.13800001 1.22399998 0.389
1.25800002 1.77400005 0.389
1.68799996 1.42400002 0.229
0.34799999 1.43400002 0.419
0.92799997 2.00399995 0.089
0.51800001 1.574 0.099
1.80799997 1.41400003 0.34900001
0.96799999 1.73399997 0.149
1.18799996 1.74399996 0.39899999
0.73799998 1.73399997 0.34900001
0.66799998 1.33399999 0.419
0.37799999 1.33399999 0.419
1.13800001 1.74399996 0.34900001
1.91799998 1.33399999 0.389
1.55799997 1.43400002 0.31900001
1.78799999 1.33399999 0.34900001
0.54799998 1.574 0.099
1.72800004 1.34399998 0.40900001
1.81799996 1.79400003 0.36899999
0.83800000 1.76400006 0.39899999
2.06800008 1.74399996 0.31900001
0.51800001 1.73399997 0.249
2.02800012 1.85399997 0.26899999
1.51800001 1.33399999 0.36899999
1.56799996 1.44400001 0.29899999
0.77800000 1.76400006 0.39899999
1.06799996 1.43400002 0.39899999
2.01799989 1.74399996 0.12899999
0.95800000 1.74399996 0.27900001
0.66799998 1.73399997 0.29899999
0.41800001 1.94400001 0.119
1.51800001 1.75399995 0.39899999
1.02800000 1.74399996 0.229
0.44800001 1.62399995 0.109
1.47800004 1.74399996 0.27900001
1.52800000 1.44400001 0.23899999
1.17799997 1.74399996 0.259
2.15799999 1.65400004 0.149
1.96800005 1.91400003 0.329
1.61800003 1.74399996 0.39899999
2.03800011 1.86399996 0.29899999
1.57799995 1.74399996 0.259
0.43799999 1.66400003 0.259
2.13800001 1.67400002 0.15899999
0.75800002 1.80400002 0.389
1.09800005 1.49399996 0.079
2.08800006 1.73399997 0.27900001
1.00800002 1.73399997 0.169
0.95800000 2.03399992 0.089
1.99800003 1.33399999 0.359
1.62800002 1.96399999 0.089
0.93800002 1.80400002 0.37900001
2.13800001 1.704 0.099
1.37800002 1.72399998 0.089
2.03800011 1.73399997 0.12899999
1.82799995 1.41400003 0.259
0.80800003 1.74399996 0.189
1.04799998 1.78400004 0.389
0.76800001 1.73399997 0.249
0.69800001 1.94400001 0.069
2.05800009 1.83399999 0.389
2.17799997 1.65400004 0.199
0.45800000 1.48399997 0.29899999
0.53799999 1.44400001 0.39899999
2.06800008 1.33399999 0.40900001
1.60800004 1.43400002 0.30899999
2.06800008 1.73399997 0.34900001
2.14800000 1.68400002 0.23899999
2.06800008 1.73399997 0.39899999
0.43799999 1.48399997 0.34900001
1.30799997 1.73399997 0.119
1.83800006 1.44400001 0.079
1.02800000 1.53400004 0.069
0.54799998 1.62399995 0.079
0.52800000 1.44400001 0.389
1.51800001 1.454 0.199
1.84800005 1.81400001 0.359
0.79799998 1.74399996 0.219
0.44800001 1.58399999 0.169
1.29799998 1.42400002 0.39899999
1.01800001 1.39400005 0.419
1.08800006 1.80400002 0.37900001
0.43799999 1.61399996 0.15899999
2.08800006 1.454 0.089
1.44799995 1.73399997 0.12899999
1.89800000 1.74399996 0.259
0.65799999 1.72399998 0.099
1.37800002 1.35399997 0.419
0.34799999 0.93400002 0.43900001
1.33800006 1.74399996 0.289
0.79799998 1.74399996 0.40900001
0.42800000 1.38399994 0.419
0.50800002 1.74399996 0.37900001
1.30799997 1.37399995 0.419
0.40799999 1.324 0.39899999
2.06800008 1.77400005 0.29899999
0.86799997 1.74399996 0.23899999
0.96799999 1.33399999 0.40900001
1.05799997 1.27400005 0.079
2.10800004 1.86399996 0.089
2.06800008 1.824 0.169
0.97799999 1.74399996 0.30899999
1.35800004 1.324 0.39899999
0.42800000 1.454 0.40900001
2.13800001 1.49399996 0.42899999
1.98800004 1.74399996 0.289
2.13800001 0.94400001 0.089
2.09800005 1.574 0.12899999
1.29799998 1.74399996 0.23899999
1.23800004 1.79400003 0.36899999
0.50800002 1.33399999 0.40900001
2.17799997 1.05400002 0.36899999
1.83800006 1.40400004 0.419
0.64800000 1.63399994 0.079
1.83800006 1.41400003 0.359
0.79799998 1.33399999 0.419
2.07800007 1.704 0.17900001
1.87800002 1.27400005 0.089
1.39800000 1.74399996 0.249
2.16799998 1.30400002 0.40900001
1.68799996 1.73399997 0.229
0.84799999 1.77400005 0.389
1.91799998 1.75399995 0.169
1.03799999 1.42400002 0.36899999
2.00799990 1.85399997 0.33899999
0.97799999 1.40400004 0.419
1.36800003 1.74399996 0.359
1.14800000 1.46399999 0.079
1.63800001 1.33399999 0.37900001
1.43799996 1.74399996 0.34900001
1.19799995 1.41400003 0.419
0.87800002 1.324 0.389
2.01799989 1.73399997 0.359
1.60800004 1.72399998 0.139
1.12800002 1.74399996 0.39899999
1.71800005 1.43400002 0.139
1.85800004 1.28400004 0.079
2.01799989 1.41400003 0.389
0.49800000 1.73399997 0.249
1.37800002 1.41400003 0.36899999
2.09800005 1.55400002 0.15899999
2.00799990 1.33399999 0.39899999
1.27800000 1.38399994 0.419
1.41799998 1.72399998 0.099
0.67799997 1.73399997 0.33899999
1.58800006 1.79400003 0.36899999
1.55799997 1.79400003 0.36899999
2.06800008 1.40400004 0.42899999
1.16799998 1.42400002 0.37900001
1.85800004 1.76400006 0.36899999
1.99800003 1.89400005 0.259
1.54799998 1.76400006 0.389
1.20799994 1.454 0.079
1.26800001 1.74399996 0.36899999
2.15799999 1.73399997 0.40900001
1.01800001 1.33399999 0.40900001
2.08800006 1.59399998 0.119
2.08800006 1.55400002 0.109
0.84799999 1.74399996 0.37900001
0.59799999 1.73399997 0.30899999
0.60799998 1.47399998 0.099
2.11800003 1.83399999 0.39899999
0.83800000 1.72399998 0.069
1.45799994 1.72399998 0.099
1.27800000 1.26400006 0.079
2.01799989 1.73399997 0.109
0.62800002 1.454 0.099
2.04800010 1.80400002 0.33899999
2.14800000 1.04400003 0.37900001
1.65799999 1.41400003 0.39899999
1.21800005 1.324 0.36899999
0.49800000 1.73399997 0.329
1.78799999 1.81400001 0.359
1.76800001 1.33399999 0.39899999
1.86800003 1.75399995 0.389
0.75800002 1.73399997 0.329
1.65799999 1.77400005 0.37900001
1.76800001 1.454 0.099
1.13800001 1.74399996 0.20900001
0.66799998 1.73399997 0.109
0.60799998 1.51400006 0.249
0.67799997 1.36399996 0.419
1.82799995 1.85399997 0.34900001
0.72799999 1.35399997 0.419
2.13800001 1.67400002 0.17900001
2.11800003 1.79400003 0.39899999
0.62800002 1.74399996 0.199
1.85800004 1.42400002 0.17900001
1.68799996 1.74399996 0.359
0.88800001 1.74399996 0.359
0.51800001 1.74399996 0.40900001
2.09800005 1.83399999 0.39899999
1.55799997 1.41400003 0.419
1.45799994 1.42400002 0.37900001
1.86800003 1.74399996 0.289
1.61800003 1.75399995 0.389
1.59800005 1.33399999 0.39899999
2.08800006 1.33399999 0.389
1.13800001 1.72399998 0.079
0.57800001 1.41400003 0.40900001
0.43799999 1.69400001 0.359
1.85800004 1.42400002 0.149
2.00799990 1.89400005 0.26899999
0.39800000 1.24399996 0.099
0.79799998 1.28400004 0.079
0.48800001 1.574 0.099
2.12800002 1.13399994 0.389
0.35800001 1.98399997 0.30899999
1.51800001 1.47399998 0.12899999
1.88800001 1.81400001 0.34900001
0.50800002 1.52400005 0.119
0.35800001 1.86399996 0.419
1.75800002 1.42400002 0.169
2.16799998 1.58399999 0.42899999
1.55799997 1.46399999 0.099
1.53799999 1.74399996 0.27900001
0.96799999 2.00399995 0.089
1.49800003 1.74399996 0.39899999
0.44800001 1.71399999 0.12899999
1.47800004 1.37399995 0.419
0.59799999 1.73399997 0.169
0.53799999 1.50399995 0.30899999
0.61799997 1.73399997 0.289
1.34800005 1.73399997 0.119
1.37800002 1.74399996 0.29899999
1.79799998 1.71399999 0.109
2.03800011 1.98399997 0.089
0.70800000 1.34399998 0.419
0.80800003 1.79400003 0.389
0.65799999 1.34399998 0.419
2.09800005 1.44400001 0.17900001
0.38800001 1.91400003 0.36899999
0.39800000 1.63399994 0.419
1.29799998 1.74399996 0.34900001
1.55799997 1.74399996 0.249
2.15799999 0.97399998 0.39899999
0.89800000 1.74399996 0.17900001
0.74800003 1.73399997 0.23899999
1.10800004 1.51400006 0.069
0.65799999 1.81400001 0.37900001
2.14800000 1.31400001 0.40900001
2.00799990 1.74399996 0.389
1.51800001 1.43400002 0.31900001
2.03800011 1.73399997 0.15899999
1.46800005 1.42400002 0.36899999
0.43799999 1.704 0.189
1.96800005 1.80400002 0.34900001
2.09800005 1.60399997 0.169
0.34799999 1.96399999 0.36899999
1.88800001 1.71399999 0.099
1.89800000 1.75399995 0.169
0.52800000 1.74399996 0.37900001
1.82799995 1.37399995 0.40900001
0.55800003 1.73399997 0.31900001
1.44799995 1.74399996 0.37900001
0.80800003 1.73399997 0.27900001
0.47799999 1.80400002 0.389
0.86799997 1.73399997 0.12899999
1.14800000 1.75399995 0.169
1.57799995 1.33399999 0.359
0.37799999 1.53400004 0.40900001
1.76800001 1.42400002 0.189
0.43799999 1.64400005 0.119
1.20799994 1.78400004 0.389
1.59800005 1.42400002 0.389
0.92799997 1.94400001 0.069
2.09800005 1.63399994 0.15899999
2.05800009 1.43400002 0.069
1.76800001 1.41400003 0.40900001
2.04800010 1.93400002 0.119
1.55799997 1.43400002 0.33899999
1.78799999 1.37399995 0.419
1.72800004 1.41400003 0.37900001
1.35800004 1.35399997 0.419
1.25800002 1.27400005 0.079
0.81800002 1.42400002 0.40900001
2.10800004 1.88399994 0.089
2.07800007 1.80400002 0.34900001
2.03800011 1.84399998 0.289
1.02800000 2.02399993 0.089
1.14800000 1.79400003 0.37900001
0.83800000 1.37399995 0.419
1.74800003 1.74399996 0.27900001
2.12800002 1.77400005 0.099
1.76800001 1.42400002 0.329
1.63800001 1.37399995 0.419
1.43799996 1.26400006 0.079
2.13800001 1.50399995 0.419
1.32799995 1.72399998 0.079
2.01799989 1.73399997 0.199
0.35800001 1.98399997 0.12899999
1.69799995 1.74399996 0.259
1.91799998 1.44400001 0.089
1.16799998 1.74399996 0.27900001
1.71800005 1.43400002 0.149
1.38800001 1.42400002 0.40900001
1.68799996 1.42400002 0.34900001
1.48800004 1.73399997 0.149
2.01799989 1.80400002 0.34900001
1.23800004 1.73399997 0.109
1.26800001 1.74399996 0.31900001
1.12800002 1.72399998 0.089
0.72799999 1.73399997 0.259
1.11800003 1.74399996 0.389
1.22800004 1.74399996 0.219
0.62800002 1.73399997 0.229
2.09800005 1.72399998 0.259
0.33800000 1.65400004 0.419
1.13800001 1.49399996 0.069
1.95799994 1.33399999 0.34900001
0.73799998 1.73399997 0.219
1.03799999 1.74399996 0.39899999
1.07799995 1.76400006 0.39899999
1.83800006 1.74399996 0.259
1.63800001 1.454 0.119
2.10800004 1.92400002 0.089
2.08800006 1.59399998 0.089
1.26800001 1.24399996 0.079
0.38800001 1.37399995 0.419
0.71799999 1.99399996 0.089
0.78799999 1.43400002 0.40900001
0.93800002 1.96399999 0.079
2.15799999 1.65400004 0.099
0.83800000 1.73399997 0.26899999
0.78799999 2.03399992 0.079
1.41799998 1.74399996 0.33899999
0.61799997 1.74399996 0.36899999
0.44800001 1.72399998 0.20900001
1.55799997 1.74399996 0.37900001
2.13800001 1.67400002 0.149
2.06800008 1.91400003 0.139
0.72799999 1.74399996 0.359
0.38800001 1.98399997 0.089
1.29799998 1.72399998 0.079
1.35800004 1.74399996 0.259
2.10800004 1.71399999 0.229
0.76800001 1.75399995 0.169
2.08800006 1.91400003 0.12899999
0.79799998 1.74399996 0.34900001
1.65799999 1.24399996 0.079
2.15799999 1.40400004 0.42899999
0.34799999 0.93400002 0.419
2.15799999 1.64400005 0.089
1.57799995 1.42400002 0.389
1.93799996 1.40400004 0.34900001
1.25800002 1.74399996 0.39899999
1.58800006 1.44400001 0.15899999
0.55800003 1.72399998 0.109
1.69799995 1.72399998 0.079
0.43799999 1.64400005 0.259
1.90799999 1.73399997 0.119
2.09800005 1.69400001 0.149
0.58800000 1.47399998 0.17900001
0.66799998 1.38399994 0.419
0.86799997 1.824 0.37900001
0.60799998 2.01399994 0.079
1.65799999 1.78400004 0.36899999
0.59799999 1.73399997 0.27900001
0.76800001 1.94400001 0.079
0.82800001 1.74399996 0.37900001
2.11800003 1.00399995 0.389
0.47799999 1.71399999 0.109
1.27800000 1.78400004 0.389
1.93799996 1.34399998 0.40900001
2.14800000 1.454 0.42899999
1.35800004 1.74399996 0.31900001
2.07800007 1.74399996 0.30899999
1.20799994 1.324 0.389
1.98800004 1.74399996 0.15899999
1.12800002 1.43400002 0.39899999
1.72800004 1.44400001 0.12899999
2.07800007 1.48399997 0.079
1.89800000 1.80400002 0.37900001
0.89800000 1.33399999 0.40900001
0.35800001 1.66400003 0.419
1.75800002 1.74399996 0.23899999
0.86799997 1.74399996 0.34900001
1.73800004 1.74399996 0.389
1.68799996 1.33399999 0.40900001
1.95799994 1.824 0.37900001
1.65799999 1.46399999 0.089
1.39800000 1.42400002 0.419
1.70799994 1.40400004 0.419
1.74800003 1.454 0.099
1.79799998 1.74399996 0.27900001
1.62800002 1.44400001 0.12899999
2.11800003 0.90399998 0.089
1.92799997 1.41400003 0.42899999
1.77800000 1.454 0.079
2.13800001 1.26400006 0.089
0.93800002 1.27400005 0.079
1.26800001 1.72399998 0.099
1.13800001 1.74399996 0.359
0.72799999 1.74399996 0.189
2.00799990 2.00399995 0.099
2.11800003 0.87400001 0.42899999
2.16799998 1.23399997 0.37900001
1.22800004 1.27400005 0.079
2.09800005 1.40400004 0.37900001
2.07800007 1.55400002 0.069
1.91799998 1.33399999 0.33899999
1.11800003 1.42400002 0.40900001
2.01799989 1.33399999 0.34900001
1.11800003 2.02399993 0.079
0.47799999 1.62399995 0.089
1.79799998 1.39400005 0.419
0.39800000 1.27400005 0.119
1.63800001 1.40400004 0.419
0.35800001 1.37399995 0.42899999
1.93799996 1.38399994 0.419
1.13800001 1.324 0.37900001
2.10800004 1.76400006 0.119
2.12800002 0.98400003 0.389
1.36800003 1.74399996 0.37900001
1.51800001 1.74399996 0.289
0.43799999 1.63399994 0.36899999
0.59799999 1.44400001 0.39899999
1.17799997 1.74399996 0.15899999
0.35800001 1.88399994 0.419
1.29799998 1.41400003 0.419
0.94800001 1.35399997 0.419
1.51800001 1.324 0.389
0.93800002 1.74399996 0.289
2.16799998 1.26400006 0.39899999
0.62800002 1.77400005 0.39899999
2.15799999 1.83399999 0.37900001
0.47799999 1.71399999 0.119
0.61799997 1.53400004 0.079
1.50800002 1.25399995 0.079
1.07799995 1.74399996 0.33899999
0.80800003 1.31400001 0.37900001
1.30799997 1.324 0.36899999
0.36800000 1.97399998 0.149
1.04799998 1.74399996 0.259
1.26800001 1.73399997 0.139
1.96800005 1.74399996 0.119
0.44800001 1.33399999 0.419
1.80799997 1.74399996 0.30899999
0.64800000 1.73399997 0.29899999
0.68800002 1.39400005 0.419
1.11800003 1.50399995 0.069
2.03800011 1.83399999 0.33899999
0.43799999 1.67400002 0.27900001
1.54799998 1.44400001 0.199
2.05800009 1.79400003 0.189
1.52800000 1.72399998 0.169
1.71800005 1.44400001 0.12899999
0.56800002 1.78400004 0.39899999
1.63800001 1.77400005 0.37900001
0.53799999 1.73399997 0.29899999
1.06799996 1.73399997 0.109
1.21800005 1.36399996 0.419
1.70799994 1.75399995 0.389
1.79799998 1.42400002 0.189
1.90799999 1.34399998 0.40900001
2.03800011 1.81400001 0.26899999
1.91799998 1.37399995 0.40900001
1.56799996 1.454 0.139
2.06800008 1.40400004 0.359
1.81799996 1.43400002 0.12899999
1.59800005 1.76400006 0.389
2.13800001 1.88399994 0.37900001
1.73800004 1.42400002 0.17900001
0.43799999 1.53400004 0.29899999
0.81800002 1.31400001 0.37900001
2.04800010 1.73399997 0.33899999
1.69799995 1.33399999 0.359
0.48800001 1.38399994 0.419
0.94800001 1.74399996 0.219
0.92799997 1.74399996 0.289
0.42800000 1.40400004 0.40900001
2.09800005 1.60399997 0.15899999
1.24800003 1.42400002 0.419
2.09800005 1.76400006 0.12899999
2.09800005 1.72399998 0.249
1.45799994 1.73399997 0.249
0.95800000 1.99399996 0.079
0.47799999 1.47399998 0.27900001
0.43799999 1.61399996 0.31900001
1.55799997 1.39400005 0.419
2.08800006 1.36399996 0.419
2.00799990 1.954 0.109
0.70800000 1.33399999 0.40900001
2.00799990 1.73399997 0.34900001
2.11800003 0.86400002 0.449
0.46799999 1.40400004 0.40900001
2.14800000 1.67400002 0.419
1.75800002 1.73399997 0.229
0.76800001 1.35399997 0.419
2.15799999 1.77400005 0.389
0.59799999 1.73399997 0.26899999
1.96800005 1.42400002 0.12899999
2.16799998 1.81400001 0.33899999
0.58800000 1.35399997 0.419
1.74800003 1.42400002 0.30899999
2.06800008 1.25399995 0.089
1.27800000 1.41400003 0.359
1.52800000 1.72399998 0.089
0.59799999 1.74399996 0.39899999
0.99800003 1.74399996 0.27900001
2.15799999 1.74399996 0.39899999
2.16799998 1.66400003 0.419
2.06800008 1.84399998 0.17900001
0.76800001 1.96399999 0.079
0.43799999 1.72399998 0.289
0.46799999 1.34399998 0.419
0.92799997 1.74399996 0.259
0.41800001 1.61399996 0.419
1.58800006 1.74399996 0.29899999
0.68800002 1.324 0.39899999
1.87800002 1.41400003 0.40900001
1.96800005 1.75399995 0.169
0.42800000 1.99399996 0.089
0.60799998 1.27400005 0.079
0.50800002 1.27400005 0.079
0.48800001 1.73399997 0.23899999
1.64800000 1.42400002 0.359
1.70799994 1.42400002 0.31900001
2.08800006 1.47399998 0.12899999
0.78799999 1.33399999 0.40900001
1.88800001 1.74399996 0.27900001
0.91799998 1.74399996 0.23899999
0.42800000 1.85399997 0.36899999
1.42799997 1.34399998 0.419
1.71800005 1.42400002 0.34900001
1.78799999 1.454 0.089
0.45800000 1.60399997 0.12899999
0.68800002 1.62399995 0.079
1.62800002 1.75399995 0.39899999
2.14800000 1.36399996 0.419
0.75800002 1.74399996 0.15899999
1.52800000 1.33399999 0.34900001
1.86800003 1.33399999 0.40900001
0.75800002 1.73399997 0.229
1.00800002 1.73399997 0.139
0.79799998 1.73399997 0.199
1.50800002 1.73399997 0.12899999
0.89800000 1.74399996 0.249
0.41800001 1.47399998 0.40900001
1.18799996 1.35399997 0.419
0.78799999 1.74399996 0.359
0.93800002 1.99399996 0.079
1.80799997 1.84399998 0.34900001
0.69800001 1.324 0.40900001
1.37800002 1.72399998 0.069
0.95800000 1.78400004 0.389
0.36800000 1.88399994 0.39899999
1.33800006 1.24399996 0.079
0.46799999 1.46399999 0.36899999
1.34800005 1.33399999 0.36899999
0.42800000 1.66400003 0.419
1.90799999 1.74399996 0.329
1.28799999 1.74399996 0.23899999
2.12800002 0.94400001 0.079
1.88800001 1.36399996 0.40900001
1.71800005 1.80400002 0.359
1.69799995 1.43400002 0.15899999
2.05800009 1.43400002 0.079
1.13800001 1.74399996 0.27900001
1.67799997 1.74399996 0.31900001
2.08800006 1.54400003 0.119
2.06800008 1.824 0.15899999
1.55799997 1.324 0.39899999
1.48800004 1.35399997 0.419
1.69799995 1.704 0.139
0.38800001 0.92400002 0.449
1.61800003 1.73399997 0.109
1.34800005 1.72399998 0.099
1.45799994 1.73399997 0.229
2.13800001 1.05400002 0.389
2.07800007 1.59399998 0.37900001
0.44800001 1.71399999 0.099
0.58800000 1.79400003 0.39899999
0.58800000 1.454 0.12899999
1.87800002 1.75399995 0.17900001
2.05800009 1.43400002 0.119
0.65799999 1.64400005 0.069
1.42799997 1.74399996 0.23899999
2.11800003 1.46399999 0.419
1.48800004 1.324 0.389
1.87800002 1.33399999 0.34900001
1.96800005 1.75399995 0.199
1.36800003 1.41400003 0.419
1.69799995 1.39400005 0.419
1.73800004 1.46399999 0.069
1.09800005 1.24399996 0.079
2.09800005 1.52400005 0.139
0.78799999 1.73399997 0.329
1.93799996 1.88399994 0.33899999
0.38800001 1.75399995 0.419
0.96799999 1.43400002 0.36899999
1.51800001 1.454 0.229
0.49800000 1.77400005 0.40900001
1.79799998 1.73399997 0.23899999
1.70799994 1.73399997 0.229
0.67799997 1.72399998 0.079
0.60799998 1.81400001 0.389
1.88800001 1.43400002 0.119
0.91799998 1.74399996 0.329
0.49800000 1.74399996 0.389
1.94799995 1.74399996 0.27900001
1.58800006 1.74399996 0.259
2.09800005 1.26400006 0.089
1.64800000 1.74399996 0.36899999
0.50800002 1.44400001 0.39899999
1.83800006 1.76400006 0.37900001
1.94799995 1.72399998 0.089
1.03799999 2.01399994 0.089
0.49800000 1.48399997 0.169
0.70800000 1.76400006 0.39899999
1.39800000 1.41400003 0.39899999
1.33800006 1.72399998 0.089
1.76800001 1.79400003 0.359
1.76800001 1.72399998 0.089
1.92799997 1.37399995 0.419
0.97799999 1.33399999 0.419
0.64800000 1.73399997 0.26899999
1.60800004 1.79400003 0.359
1.79799998 1.33399999 0.34900001
0.85799998 1.93400002 0.069
0.33800000 1.53400004 0.419
0.89800000 1.824 0.36899999
1.06799996 1.74399996 0.27900001
0.56800002 1.73399997 0.259
1.63800001 1.43400002 0.149
1.41799998 1.74399996 0.27900001
1.23800004 1.74399996 0.259
0.42800000 1.83399999 0.389
2.02800012 1.97399998 0.099
1.65799999 1.74399996 0.259
1.77800000 1.42400002 0.31900001
1.77800000 1.42400002 0.30899999
1.80799997 1.72399998 0.139
1.23800004 1.75399995 0.40900001
2.09800005 1.79400003 0.119
1.37800002 1.77400005 0.389
2.10800004 1.83399999 0.389
1.46800005 1.73399997 0.15899999
1.17799997 1.74399996 0.23899999
0.90799999 1.954 0.079
0.81800002 1.33399999 0.40900001
0.53799999 1.28400004 0.079
1.80799997 1.74399996 0.36899999
0.83800000 1.33399999 0.419
1.94799995 1.73399997 0.359
1.27800000 1.74399996 0.33899999
1.80799997 1.42400002 0.199
0.43799999 1.71399999 0.329
0.65799999 1.73399997 0.30899999
2.10800004 1.91400003 0.099
2.14800000 1.73399997 0.069
1.38800001 1.74399996 0.31900001
2.08800006 1.46399999 0.109
0.80800003 1.74399996 0.39899999
1.60800004 1.72399998 0.099
2.09800005 1.52400005 0.389
0.63800001 1.43400002 0.40900001
1.57799995 1.76400006 0.37900001
2.12800002 0.92400002 0.089
1.29799998 1.74399996 0.189
1.93799996 1.40400004 0.359
1.66799998 1.76400006 0.389
1.46800005 1.79400003 0.36899999
1.84800005 1.41400003 0.37900001
2.01799989 1.42400002 0.139
1.39800000 1.40400004 0.419
0.85799998 1.74399996 0.219
1.56799996 1.43400002 0.34900001
1.48800004 1.74399996 0.249
1.72800004 1.38399994 0.419
0.44800001 1.454 0.33899999
1.64800000 1.43400002 0.29899999
1.39800000 1.27400005 0.079
1.74800003 1.75399995 0.389
0.43799999 1.66400003 0.089
0.68800002 1.26400006 0.079
2.10800004 1.75399995 0.29899999
0.46799999 1.824 0.37900001
1.77800000 1.90400004 0.33899999
1.78799999 1.42400002 0.189
0.65799999 1.74399996 0.169
0.95800000 1.74399996 0.33899999
1.44799995 1.72399998 0.089
2.17799997 1.80400002 0.33899999
1.72800004 1.36399996 0.40900001
1.31799996 1.74399996 0.389
0.94800001 1.37399995 0.419
1.97800004 1.36399996 0.40900001
1.82799995 1.74399996 0.259
0.45800000 1.574 0.169
1.37800002 1.73399997 0.12899999
0.69800001 1.62399995 0.079
2.13800001 1.74399996 0.089
1.32799995 1.79400003 0.36899999
0.80800003 1.98399997 0.089
1.11800003 1.74399996 0.34900001
1.34800005 1.41400003 0.389
2.17799997 1.64400005 0.17900001
0.98799998 1.74399996 0.23899999
0.40799999 1.98399997 0.089
1.70799994 1.72399998 0.089
2.04800010 1.99399996 0.089
1.56799996 1.33399999 0.33899999
2.01799989 1.33399999 0.33899999
1.49800003 1.39400005 0.419
2.07800007 1.62399995 0.37900001
1.18799996 1.47399998 0.069
2.13800001 1.78400004 0.069
0.65799999 1.74399996 0.37900001
1.88800001 1.75399995 0.189
0.36800000 1.96399999 0.31900001
2.08800006 1.64400005 0.40900001
2.11800003 1.93400002 0.069
0.71799999 1.73399997 0.119
0.56800002 1.76400006 0.40900001
1.04799998 1.72399998 0.089
2.05800009 1.94400001 0.109
0.43799999 1.67400002 0.37900001
1.67799997 1.33399999 0.36899999
0.60799998 1.48399997 0.079
1.65799999 1.74399996 0.359
0.43799999 1.704 0.40900001
2.07800007 1.454 0.089
0.43799999 1.73399997 0.419
0.65799999 1.73399997 0.259
0.81800002 1.74399996 0.20900001
0.77800000 1.73399997 0.249
1.05799997 1.42400002 0.419
1.39800000 1.324 0.389
2.01799989 1.954 0.109
0.43799999 1.60399997 0.359
0.80800003 1.39400005 0.419
2.00799990 1.40400004 0.359
1.08800006 1.74399996 0.139
1.17799997 1.27400005 0.079
1.07799995 1.48399997 0.089
2.01799989 1.81400001 0.359
2.11800003 0.92400002 0.39899999
1.20799994 1.74399996 0.219
1.12800002 1.74399996 0.34900001
1.00800002 1.73399997 0.109
1.76800001 1.42400002 0.219
0.51800001 1.73399997 0.189
1.95799994 1.74399996 0.30899999
2.08800006 1.64400005 0.36899999
1.83800006 1.74399996 0.34900001
2.11800003 1.704 0.199
2.08800006 1.54400003 0.359
1.74800003 1.24399996 0.079
1.68799996 1.74399996 0.34900001
1.56799996 1.76400006 0.389
2.13800001 1.73399997 0.079
1.96800005 1.74399996 0.34900001
2.12800002 1.74399996 0.089
1.85800004 1.75399995 0.169
0.57800001 1.26400006 0.079
2.12800002 1.54400003 0.419
1.10800004 1.31400001 0.389
1.10800004 1.454 0.089
1.13800001 1.74399996 0.329
0.87800002 1.26400006 0.079
1.80799997 1.42400002 0.189
1.01800001 1.74399996 0.34900001
1.65799999 1.73399997 0.23899999
1.84800005 1.91400003 0.329
1.09800005 1.77400005 0.389
0.90799999 1.43400002 0.40900001
0.43799999 1.68400002 0.189
1.36800003 1.72399998 0.089
1.83800006 1.41400003 0.33899999
0.98799998 1.74399996 0.37900001
0.62800002 2.01399994 0.079
1.58800006 1.36399996 0.419
0.91799998 1.75399995 0.39899999
1.81799996 1.91400003 0.33899999
1.78799999 1.33399999 0.36899999
2.06800008 1.76400006 0.169
0.40799999 1.29400003 0.27900001
1.67799997 1.42400002 0.20900001
2.00799990 1.40400004 0.36899999
1.27800000 1.324 0.37900001
1.92799997 1.74399996 0.30899999
2.08800006 1.77400005 0.39899999
0.61799997 1.83399999 0.37900001
1.92799997 1.41400003 0.389
1.51800001 1.44400001 0.259
0.60799998 1.454 0.27900001
1.58800006 1.42400002 0.36899999
0.97799999 1.97399998 0.079
1.76800001 1.74399996 0.359
2.01799989 1.42400002 0.119
1.47800004 1.74399996 0.259
1.83800006 1.72399998 0.089
2.02800012 1.73399997 0.089
1.68799996 1.25399995 0.079
1.88800001 1.34399998 0.40900001
1.87800002 1.33399999 0.36899999
1.93799996 1.81400001 0.359
1.09800005 1.76400006 0.39899999
1.21800005 1.454 0.069
0.43799999 1.62399995 0.149
0.56800002 1.73399997 0.149
2.06800008 1.72399998 0.189
1.48800004 1.77400005 0.37900001
1.31799996 1.73399997 0.12899999
1.60800004 1.34399998 0.40900001
1.42799997 1.74399996 0.27900001
0.81800002 1.79400003 0.389
0.59799999 1.454 0.229
1.82799995 1.43400002 0.119
0.43799999 1.69400001 0.119
2.16799998 0.97399998 0.40900001
0.43799999 1.59399998 0.329
2.14800000 1.91400003 0.34900001
1.02800000 1.73399997 0.149
1.89800000 1.41400003 0.42899999
1.61800003 1.74399996 0.329
1.93799996 1.41400003 0.36899999
2.09800005 1.40400004 0.39899999
2.06800008 1.954 0.079
1.91799998 1.824 0.37900001
2.12800002 1.21399999 0.39899999
0.43799999 1.52400005 0.33899999
1.49800003 1.73399997 0.199
1.25800002 1.74399996 0.33899999
1.44799995 1.75399995 0.40900001
1.23800004 1.34399998 0.419
1.72800004 1.454 0.099
1.10800004 1.96399999 0.069
1.22800004 1.42400002 0.419
0.65799999 1.75399995 0.40900001
0.71799999 1.36399996 0.419
0.42800000 2.00399995 0.079
0.87800002 1.74399996 0.169
1.43799996 1.42400002 0.40900001
1.86800003 1.41400003 0.419
0.43799999 1.59399998 0.17900001
1.14800000 1.41400003 0.419
1.37800002 1.74399996 0.39899999
1.59800005 1.80400002 0.359
1.74800003 1.74399996 0.34900001
0.45800000 1.61399996 0.099
0.59799999 1.324 0.40900001
1.28799999 1.42400002 0.40900001
1.99800003 1.73399997 0.109
1.64800000 1.74399996 0.27900001
1.12800002 1.75399995 0.40900001
1.25800002 1.74399996 0.26899999
1.90799999 1.25399995 0.089
2.03800011 1.41400003 0.39899999
1.55799997 1.77400005 0.37900001
0.62800002 1.73399997 0.20900001
2.09800005 1.41400003 0.36899999
0.43799999 1.58399999 0.31900001
0.57800001 1.61399996 0.079
0.82800001 1.74399996 0.23899999
0.54799998 1.60399997 0.089
1.44799995 1.42400002 0.34900001
0.43799999 1.56400001 0.229
1.92799997 1.73399997 0.109
0.60799998 1.74399996 0.169
0.68800002 2.00399995 0.079
0.67799997 1.72399998 0.099
0.43799999 1.62399995 0.289
0.61799997 1.37399995 0.419
1.94799995 1.74399996 0.329
2.02800012 1.40400004 0.419
0.50800002 1.33399999 0.419
1.47800004 1.324 0.39899999
0.88800001 2.00399995 0.089
1.25800002 1.324 0.36899999
1.71800005 1.42400002 0.33899999
2.00799990 1.74399996 0.23899999
1.46800005 1.42400002 0.33899999
1.31799996 1.33399999 0.39899999
0.43799999 1.69400001 0.30899999
1.22800004 1.74399996 0.329
1.75800002 1.88399994 0.33899999
2.10800004 1.46399999 0.40900001
0.46799999 1.46399999 0.329
1.70799994 1.42400002 0.359
2.12800002 1.17400002 0.39899999
1.84800005 1.44400001 0.109
2.09800005 1.93400002 0.099
1.81799996 1.74399996 0.26899999
1.06799996 1.81400001 0.36899999
1.86800003 1.42400002 0.15899999
1.18799996 1.74399996 0.23899999
0.95800000 1.74399996 0.389
2.05800009 1.41400003 0.39899999
1.03799999 1.74399996 0.139
2.17799997 1.14400005 0.36899999
1.75800002 1.74399996 0.259
0.55800003 1.47399998 0.33899999
0.45800000 1.83399999 0.37900001
2.08800006 1.48399997 0.34900001
1.98800004 1.73399997 0.089
1.84800005 1.27400005 0.079
0.71799999 1.74399996 0.359
1.42799997 1.324 0.37900001
1.68799996 1.72399998 0.069
0.64800000 1.61399996 0.079
1.68799996 1.79400003 0.359
0.43799999 1.824 0.37900001
2.04800010 1.74399996 0.389
1.42799997 1.27400005 0.079
1.54799998 1.74399996 0.33899999
1.30799997 1.76400006 0.389
0.64800000 1.72399998 0.099
1.72800004 1.74399996 0.23899999
0.56800002 1.83399999 0.37900001
0.92799997 1.74399996 0.29899999
0.40799999 1.84399998 0.39899999
0.38800001 1.88399994 0.31900001
2.00799990 1.81400001 0.389
0.78799999 1.75399995 0.169
1.53799999 1.42400002 0.37900001
1.78799999 1.33399999 0.33899999
0.63800001 1.38399994 0.419
1.36800003 1.74399996 0.26899999
1.00800002 1.35399997 0.419
1.78799999 1.42400002 0.15899999
1.06799996 1.74399996 0.23899999
1.02800000 1.824 0.36899999
0.92799997 1.74399996 0.27900001
1.08800006 1.74399996 0.36899999
1.81799996 1.74399996 0.37900001
0.43799999 1.60399997 0.33899999
0.43799999 1.574 0.20900001
0.74800003 1.72399998 0.089
1.96800005 1.40400004 0.359
0.76800001 1.73399997 0.27900001
0.86799997 1.324 0.39899999
0.41800001 1.824 0.389
1.97800004 1.42400002 0.169
0.39800000 1.91400003 0.329
0.85799998 1.73399997 0.30899999
1.52800000 1.40400004 0.419
1.53799999 1.46399999 0.119
0.78799999 1.39400005 0.419
0.43799999 1.47399998 0.36899999
0.48800001 1.49399996 0.26899999
1.62800002 1.454 0.119
1.16799998 1.73399997 0.119
2.09800005 1.71399999 0.149
1.65799999 1.324 0.39899999
0.50800002 1.72399998 0.15899999
1.81799996 1.74399996 0.329
1.13800001 1.42400002 0.389
1.25800002 1.42400002 0.419
0.99800003 1.74399996 0.30899999
0.44800001 1.97399998 0.099
2.02800012 1.73399997 0.389
1.30799997 1.72399998 0.099
0.51800001 1.54400003 0.109
0.61799997 1.71399999 0.089
1.05799997 1.824 0.36899999
1.44799995 1.324 0.39899999
1.69799995 1.43400002 0.30899999
1.28799999 1.74399996 0.36899999
2.08800006 1.77400005 0.149
1.72800004 1.74399996 0.36899999
1.75800002 1.81400001 0.359
1.29799998 1.74399996 0.229
1.56799996 1.73399997 0.199
2.08800006 1.454 0.359
0.76800001 1.43400002 0.39899999
0.62800002 1.47399998 0.089
0.52800000 1.72399998 0.149
1.65799999 1.71399999 0.139
0.61799997 1.76400006 0.39899999
1.48800004 1.42400002 0.389
1.36800003 1.75399995 0.40900001
1.25800002 1.46399999 0.069
0.70800000 1.28400004 0.079
1.78799999 1.42400002 0.20900001
1.16799998 1.74399996 0.20900001
1.63800001 1.42400002 0.199
0.67799997 1.38399994 0.419
0.45800000 1.56400001 0.17900001
1.66799998 1.42400002 0.31900001
1.21800005 1.73399997 0.119
1.13800001 1.36399996 0.419
0.84799999 1.73399997 0.26899999
1.77800000 1.74399996 0.289
1.63800001 1.42400002 0.229
1.70799994 1.44400001 0.119
1.64800000 1.33399999 0.389
1.50800002 1.42400002 0.39899999
0.34799999 1.98399997 0.33899999
1.77800000 1.84399998 0.34900001
1.88800001 1.41400003 0.389
1.81799996 1.41400003 0.30899999
1.11800003 1.44400001 0.089
2.09800005 1.62399995 0.40900001
1.70799994 1.78400004 0.359
0.70800000 1.74399996 0.40900001
1.72800004 1.42400002 0.27900001
0.46799999 1.73399997 0.23899999
0.47799999 1.59399998 0.089
0.55800003 1.79400003 0.39899999
0.68800002 1.41400003 0.419
0.58800000 1.324 0.40900001
0.45800000 1.46399999 0.37900001
0.60799998 1.824 0.37900001
0.67799997 1.81400001 0.389
2.12800002 0.90399998 0.40900001
0.35800001 1.94400001 0.26899999
1.74800003 1.74399996 0.329
0.67799997 1.33399999 0.40900001
0.97799999 1.35399997 0.419
2.09800005 1.53400004 0.33899999
0.40799999 1.89400005 0.359
1.52800000 1.33399999 0.36899999
1.46800005 1.34399998 0.419
1.59800005 1.42400002 0.359
0.45800000 1.60399997 0.119
0.47799999 1.73399997 0.329
1.38800001 1.74399996 0.36899999
1.46800005 1.73399997 0.119
0.83800000 1.97399998 0.079
1.30799997 1.74399996 0.249
1.95799994 1.73399997 0.109
2.15799999 1.85399997 0.36899999
2.08800006 1.72399998 0.15899999
1.62800002 1.42400002 0.37900001
0.67799997 1.74399996 0.389
1.53799999 1.42400002 0.36899999
0.65799999 1.42400002 0.40900001
0.40799999 1.90400004 0.34900001
2.07800007 1.90400004 0.139
0.43799999 1.61399996 0.34900001
0.41800001 1.59399998 0.40900001
1.66799998 1.42400002 0.249
1.49800003 1.42400002 0.34900001
2.09800005 1.89400005 0.149
1.03799999 1.96399999 0.069
1.51800001 1.454 0.23899999
1.51800001 1.74399996 0.359
1.92799997 1.42400002 0.139
2.08800006 1.27400005 0.089
0.34799999 1.69400001 0.419
1.89800000 1.72399998 0.109
0.38800001 1.93400002 0.33899999
0.39800000 1.94400001 0.119
1.85800004 1.33399999 0.39899999
0.88800001 1.79400003 0.37900001
1.98800004 1.74399996 0.33899999
1.68799996 1.41400003 0.419
1.72800004 1.92400002 0.33899999
2.08800006 1.64400005 0.079
1.94799995 1.44400001 0.069
0.77800000 1.74399996 0.39899999
1.81799996 1.33399999 0.36899999
1.94799995 1.75399995 0.199
1.91799998 1.74399996 0.34900001
2.15799999 1.79400003 0.37900001
1.86800003 1.87399995 0.33899999
2.08800006 1.574 0.37900001
0.42800000 1.64400005 0.419
0.72799999 1.44400001 0.37900001
2.10800004 1.84399998 0.089
0.60799998 1.324 0.389
1.22800004 1.42400002 0.40900001
0.64800000 1.46399999 0.079
0.34799999 0.93400002 0.40900001
1.49800003 1.72399998 0.069
1.64800000 1.41400003 0.389
0.50800002 1.38399994 0.419
0.35800001 1.38399994 0.419
1.82799995 1.41400003 0.26899999
0.46799999 1.76400006 0.40900001
1.37800002 1.74399996 0.26899999
0.74800003 1.73399997 0.27900001
0.40799999 1.28400004 0.12899999
0.38800001 1.94400001 0.119
1.88800001 1.44400001 0.089
1.42799997 1.74399996 0.30899999
0.48800001 1.50399995 0.27900001
1.86800003 1.37399995 0.40900001
0.43799999 1.55400002 0.36899999
2.09800005 0.85399997 0.42899999
1.40799999 1.73399997 0.139
1.32799995 1.42400002 0.39899999
1.73800004 1.72399998 0.149
0.92799997 1.74399996 0.359
0.34799999 1.90400004 0.40900001
1.88800001 1.74399996 0.30899999
1.13800001 1.74399996 0.39899999
0.57800001 1.33399999 0.40900001
1.33800006 1.42400002 0.39899999
1.30799997 1.74399996 0.36899999
1.91799998 1.90400004 0.329
1.83800006 1.33399999 0.36899999
0.38800001 1.87399995 0.30899999
0.60799998 1.84399998 0.37900001
2.12800002 1.71399999 0.40900001
0.65799999 1.71399999 0.069
2.14800000 1.39400005 0.419
1.90799999 1.27400005 0.089
0.63800001 1.454 0.36899999
0.82800001 1.38399994 0.419
1.00800002 1.74399996 0.39899999
0.51800001 1.26400006 0.079
1.97800004 1.74399996 0.26899999
1.67799997 1.72399998 0.109
0.70800000 1.78400004 0.39899999
0.59799999 1.72399998 0.109
2.12800002 0.884 0.43900001
1.61800003 1.74399996 0.31900001
1.31799996 1.78400004 0.37900001
2.02800012 1.75399995 0.229
0.38800001 1.33399999 0.40900001
0.46799999 1.73399997 0.329
1.64800000 1.44400001 0.139
0.94800001 1.81400001 0.37900001
1.96800005 1.91400003 0.31900001
0.58800000 1.46399999 0.34900001
0.66799998 1.73399997 0.31900001
2.16799998 1.69400001 0.30899999
0.79799998 1.73399997 0.23899999
1.61800003 1.44400001 0.139
0.52800000 1.73399997 0.259
2.11800003 0.94400001 0.389
0.46799999 1.704 0.079
1.20799994 1.33399999 0.40900001
2.09800005 1.89400005 0.12899999
1.09800005 1.43400002 0.389
0.47799999 1.52400005 0.169
0.59799999 1.56400001 0.099
1.13800001 1.74399996 0.229
0.57800001 1.71399999 0.089
1.83800006 1.44400001 0.089
2.16799998 1.10399997 0.37900001
0.35800001 1.62399995 0.419
1.24800003 1.41400003 0.359
1.34800005 1.324 0.37900001
1.75800002 1.41400003 0.34900001
0.48800001 1.50399995 0.15899999
1.79799998 1.73399997 0.39899999
1.79799998 1.44400001 0.099
0.66799998 1.83399999 0.37900001
0.59799999 1.28400004 0.079
1.48800004 1.72399998 0.079
0.43799999 1.72399998 0.389
1.37800002 1.74399996 0.20900001
1.53799999 1.33399999 0.33899999
0.39800000 1.90400004 0.31900001
0.43799999 1.574 0.199
1.52800000 1.47399998 0.089
0.38800001 1.90400004 0.30899999
1.83800006 1.41400003 0.36899999
0.57800001 1.53400004 0.099
0.47799999 1.48399997 0.29899999
1.05799997 1.72399998 0.089
1.80799997 1.73399997 0.149
1.10800004 1.74399996 0.259
0.52800000 1.71399999 0.079
1.46800005 1.73399997 0.12899999
1.93799996 1.72399998 0.099
0.80800003 1.74399996 0.359
2.16799998 1.69400001 0.40900001
0.43799999 1.65400004 0.359
2.13800001 1.31400001 0.39899999
2.12800002 1.41400003 0.419
0.43799999 1.48399997 0.33899999
1.03799999 1.74399996 0.23899999
1.14800000 1.72399998 0.069
1.90799999 1.41400003 0.39899999
0.78799999 2.01399994 0.079
1.99800003 1.75399995 0.17900001
1.04799998 1.42400002 0.40900001
2.00799990 1.79400003 0.389
2.09800005 1.824 0.37900001
1.34800005 1.41400003 0.39899999
0.43799999 1.56400001 0.26899999
0.62800002 1.98399997 0.089
1.08800006 1.43400002 0.39899999
2.06800008 1.824 0.189
1.45799994 1.75399995 0.39899999
0.46799999 1.48399997 0.329
1.62800002 1.33399999 0.389
1.98800004 1.72399998 0.079
1.79799998 1.78400004 0.36899999
0.43799999 1.63399994 0.169
1.58800006 1.44400001 0.149
1.86800003 1.37399995 0.419
1.80799997 1.74399996 0.37900001
2.17799997 0.93400002 0.43900001
1.83800006 1.79400003 0.36899999
1.34800005 1.73399997 0.139
1.22800004 1.73399997 0.119
2.09800005 1.47399998 0.149
0.94800001 1.74399996 0.329
0.92799997 1.54400003 0.069
0.43799999 1.67400002 0.229
2.09800005 1.54400003 0.34900001
0.92799997 1.74399996 0.37900001
1.50800002 1.75399995 0.39899999
0.49800000 1.35399997 0.419
0.49800000 1.51400006 0.29899999
0.61799997 1.47399998 0.31900001
1.34800005 1.74399996 0.20900001
2.00799990 1.43400002 0.089
1.58800006 1.73399997 0.189
2.12800002 1.78400004 0.39899999
0.43799999 1.52400005 0.329
1.97800004 1.73399997 0.34900001
1.52800000 1.44400001 0.27900001
1.67799997 1.44400001 0.12899999
1.50800002 1.42400002 0.36899999
0.39800000 1.85399997 0.31900001
1.63800001 1.42400002 0.189
1.01800001 1.72399998 0.099
1.43799996 1.74399996 0.27900001
1.52800000 1.46399999 0.109
0.40799999 1.91400003 0.33899999
2.14800000 1.824 0.389
2.08800006 1.74399996 0.289
1.73800004 1.39400005 0.419
1.46800005 1.26400006 0.079
1.71800005 1.74399996 0.30899999
1.56799996 1.42400002 0.37900001
1.16799998 1.39400005 0.419
2.17799997 0.99400002 0.39899999
0.43799999 1.63399994 0.359
0.33800000 1.954 0.39899999
0.40799999 1.56400001 0.40900001
2.09800005 0.86400002 0.419
1.64800000 1.74399996 0.34900001
1.96800005 1.43400002 0.109
0.37799999 2.01399994 0.079
0.61799997 1.63399994 0.079
0.65799999 1.37399995 0.419
0.63800001 1.74399996 0.189
2.01799989 1.84399998 0.33899999
1.68799996 1.33399999 0.34900001
1.04799998 1.954 0.069
1.84800005 1.72399998 0.119
0.39800000 1.35399997 0.419
2.12800002 1.72399998 0.099
1.10800004 1.74399996 0.39899999
1.06799996 1.51400006 0.069
0.51800001 1.96399999 0.099
0.40799999 1.27400005 0.229
0.43799999 1.72399998 0.27900001
2.17799997 1.40400004 0.42899999
1.53799999 1.33399999 0.40900001
1.85800004 1.74399996 0.359
0.49800000 1.55400002 0.099
2.11800003 1.81400001 0.089
1.94799995 1.27400005 0.089
0.36800000 1.76400006 0.419
1.51800001 1.74399996 0.34900001
2.10800004 1.47399998 0.39899999
0.79799998 1.44400001 0.359
1.88800001 1.81400001 0.37900001
1.63800001 1.78400004 0.36899999
1.26800001 1.73399997 0.119
1.02800000 1.41400003 0.419
2.14800000 1.65400004 0.419
0.87800002 1.72399998 0.109
1.22800004 1.73399997 0.12899999
0.45800000 1.34399998 0.419
0.82800001 1.80400002 0.389
0.72799999 1.73399997 0.099
1.80799997 1.72399998 0.079
1.49800003 1.34399998 0.419
0.43799999 1.66400003 0.249
2.04800010 1.33399999 0.36899999
1.92799997 1.41400003 0.419
0.34799999 1.51400006 0.419
0.40799999 1.35399997 0.419
1.74800003 1.76400006 0.37900001
1.71800005 1.454 0.099
1.88800001 1.42400002 0.149
0.74800003 1.43400002 0.39899999
1.73800004 1.93400002 0.33899999
1.61800003 1.454 0.109
1.62800002 1.35399997 0.419
2.03800011 1.72399998 0.169
1.58800006 1.33399999 0.389
1.61800003 1.42400002 0.359
0.43799999 1.64400005 0.329
0.56800002 1.71399999 0.079
1.68799996 1.42400002 0.27900001
0.97799999 1.50399995 0.079
1.14800000 1.74399996 0.249
0.77800000 1.26400006 0.069
1.06799996 1.73399997 0.12899999
0.56800002 1.73399997 0.219
1.21800005 1.40400004 0.419
1.89800000 1.33399999 0.33899999
0.97799999 1.74399996 0.27900001
1.54799998 1.44400001 0.219
0.89800000 1.74399996 0.229
0.80800003 1.75399995 0.15899999
2.00799990 1.73399997 0.109
1.81799996 1.75399995 0.15899999
1.47800004 1.73399997 0.149
0.83800000 1.74399996 0.189
2.17799997 1.66400003 0.30899999
1.72800004 1.43400002 0.149
1.39800000 1.73399997 0.15899999
2.02800012 1.36399996 0.419
0.99800003 1.74399996 0.219
0.98799998 1.96399999 0.069
1.06799996 1.74399996 0.149
2.14800000 1.67400002 0.189
0.39800000 1.58399999 0.419
0.69800001 1.73399997 0.33899999
2.08800006 1.69400001 0.39899999
0.62800002 1.74399996 0.189
1.71800005 1.46399999 0.079
0.37799999 1.38399994 0.419
1.08800006 1.38399994 0.419
1.12800002 1.98399997 0.079
2.07800007 1.73399997 0.389
1.31799996 1.41400003 0.359
0.79799998 2.03399992 0.079
1.52800000 1.74399996 0.39899999
1.08800006 1.99399996 0.079
0.51800001 1.73399997 0.27900001
1.86800003 1.74399996 0.30899999
1.02800000 1.37399995 0.419
1.55799997 1.74399996 0.259
1.98800004 1.98399997 0.109
0.54799998 1.454 0.36899999
2.00799990 1.74399996 0.17900001
0.79799998 1.74399996 0.17900001
1.89800000 1.81400001 0.359
0.46799999 1.63399994 0.079
0.96799999 1.74399996 0.219
1.46800005 1.74399996 0.259
1.72800004 1.33399999 0.39899999
1.29799998 1.74399996 0.199
1.45799994 1.80400002 0.359
1.16799998 1.72399998 0.089
1.12800002 1.72399998 0.079
0.34799999 1.48399997 0.419
0.50800002 1.79400003 0.389
2.16799998 1.64400005 0.119
0.78799999 1.75399995 0.149
1.29799998 1.74399996 0.249
1.81799996 1.73399997 0.23899999
1.00800002 1.76400006 0.39899999
1.08800006 1.74399996 0.389
1.51800001 1.43400002 0.33899999
2.12800002 1.69400001 0.199
0.89800000 1.73399997 0.289
1.54799998 1.24399996 0.079
1.07799995 1.74399996 0.40900001
0.89800000 1.324 0.389
0.83800000 1.74399996 0.17900001
1.88800001 1.88399994 0.33899999
1.15799999 1.74399996 0.29899999
1.81799996 1.94400001 0.329
0.84799999 1.73399997 0.119
0.97799999 1.43400002 0.36899999
0.62800002 1.39400005 0.419
1.73800004 1.81400001 0.359
2.10800004 1.40400004 0.389
1.43799996 1.74399996 0.40900001
0.60799998 1.72399998 0.109
1.09800005 1.74399996 0.30899999
0.90799999 1.74399996 0.359
1.36800003 1.41400003 0.359
0.53799999 1.35399997 0.419
1.78799999 1.74399996 0.329
1.36800003 1.41400003 0.37900001
0.43799999 1.79400003 0.389
1.55799997 1.72399998 0.139
1.88800001 1.33399999 0.389
0.89800000 1.52400005 0.069
2.09800005 1.53400004 0.12899999
1.88800001 1.74399996 0.329
0.35800001 1.97399998 0.109
1.36800003 1.73399997 0.12899999
0.69800001 1.73399997 0.27900001
1.62800002 1.74399996 0.289
1.96800005 1.76400006 0.229
2.13800001 1.68400002 0.099
1.74800003 1.74399996 0.29899999
0.35800001 0.92400002 0.43900001
1.91799998 1.87399995 0.33899999
0.94800001 1.54400003 0.069
0.46799999 1.71399999 0.109
1.41799998 1.73399997 0.149
0.68800002 1.34399998 0.419
0.55800003 1.56400001 0.099
0.86799997 1.324 0.389
2.09800005 1.56400001 0.169
0.54799998 1.47399998 0.33899999
1.03799999 1.74399996 0.289
0.48800001 1.47399998 0.34900001
0.46799999 1.49399996 0.249
1.38800001 1.72399998 0.099
0.40799999 1.89400005 0.329
1.97800004 1.33399999 0.34900001
1.04799998 1.72399998 0.079
1.51800001 1.47399998 0.099
1.50800002 1.73399997 0.199
2.09800005 1.824 0.109
2.11800003 1.074 0.39899999
1.79799998 1.41400003 0.39899999
1.76800001 1.84399998 0.34900001
0.52800000 1.56400001 0.099
2.09800005 1.71399999 0.23899999
1.88800001 1.90400004 0.329
0.92799997 1.73399997 0.119
1.07799995 1.42400002 0.37900001
2.03800011 1.94400001 0.109
1.75800002 1.42400002 0.229
1.64800000 1.38399994 0.419
0.92799997 1.74399996 0.36899999
1.94799995 1.33399999 0.33899999
1.85800004 1.44400001 0.079
1.21800005 1.74399996 0.169
1.68799996 1.72399998 0.089
0.44800001 1.54400003 0.219
1.73800004 1.71399999 0.139
1.83800006 1.74399996 0.31900001
2.08800006 1.48399997 0.099
2.12800002 0.89399999 0.419
2.17799997 1.69400001 0.39899999
0.65799999 1.324 0.389
1.90799999 1.40400004 0.419
1.42799997 1.80400002 0.359
2.16799998 1.75399995 0.389
0.43799999 1.61399996 0.169
0.54799998 1.64400005 0.079
0.58800000 1.33399999 0.419
1.64800000 1.43400002 0.31900001
2.08800006 1.47399998 0.359
1.65799999 1.74399996 0.34900001
2.05800009 1.76400006 0.26899999
