# .PCD v0.7 - Point Cloud Data file format
VERSION 0.7
FIELDS x y z
SIZE 4 4 4
TYPE F F F
COUNT 1 1 1
WIDTH 1433
HEIGHT 1
VIEWPOINT 0 0 0 1 0 0 0
POINTS 1433
DATA ascii
3.45799994 1.77400005 6.13899994
4.07800007 1.29400003 6.19899988
2.47799993 1.25399995 6.04899979
3.45799994 1.77400005 6.26900005
3.60800004 1.87399995 6.15899992
3.13800001 1.97399998 6.25899982
3.55800009 1.90400004 6.19899988
2.72799993 1.98399997 6.25899982
3.32800007 1.35399997 6.02899981
4.27799988 1.17400002 6.10900021
4.32800007 1.52400005 6.10900021
4.22800016 1.28400004 6.22900009
3.91799998 1.44400001 6.13899994
2.92799997 1.76400006 6.15899992
4.04799986 1.88399994 6.25899982
3.71799994 1.62399995 6.38899994
3.33800006 1.54400003 6.35900021
4.27799988 1.73399997 6.1789999
2.55800009 1.87399995 6.10900021
3.79800010 1.81400001 6.079
3.39800000 1.80400002 6.06899977
2.69799995 1.35399997 6.02899981
2.96799994 2.08400011 6.36899996
4.04799986 1.42400002 6.12900019
2.56800008 1.17400002 6.09899998
4.09800005 1.37399995 6.02899981
3.14800000 1.80400002 6.05900002
2.55800009 1.074 6.30900002
4.16800022 1.88399994 6.31899977
2.62800002 1.31400001 6.18900013
3.73799992 1.81400001 6.06899977
2.58800006 1.77400005 6.10900021
3.19799995 1.55400002 6.36899996
4.27799988 1.00399995 6.28900003
3.02800012 1.824 6.09899998
3.72799993 1.33399999 6.04899979
3.13800001 1.44400001 6.08900023
2.60800004 1.31400001 6.1789999
2.49799991 2.02399993 6.1789999
2.54800010 1.96399999 6.31899977
3.72799993 1.42400002 6.05900002
2.74799991 1.81400001 6.09899998
3.68799996 1.76400006 6.35900021
3.38800001 1.42400002 6.12900019
3.13800001 1.44400001 6.13899994
2.55800009 1.73399997 6.28900003
3.55800009 1.77400005 6.24900007
3.30800009 1.91400003 6.15899992
2.62800002 1.324 6.15899992
4.26800013 1.27400005 6.22900009
3.21799994 1.93400002 6.12900019
3.80800009 1.47399998 6.1789999
2.55800009 1.46399999 6.04899979
3.52800012 1.51400006 6.1789999
3.75799990 1.81400001 6.06899977
4.29799986 1.67400002 6.27899981
2.90799999 2.07399988 6.28900003
2.55800009 1.704 6.05900002
3.10800004 1.48399997 6.20900011
3.81800008 1.46399999 6.15899992
4.33799982 1.04400003 6.09899998
3.54800010 1.77400005 6.14900017
3.71799994 1.79400003 6.09899998
2.71799994 1.77400005 6.34899998
3.12800002 1.76400006 6.329
4.11800003 1.40400004 6.02899981
2.48799992 1.074 6.04899979
3.30800009 1.54400003 6.36899996
4.18800020 1.50399995 6.34899998
3.88800001 1.54400003 6.34899998
3.89800000 1.76400006 6.14900017
3.58800006 1.79400003 6.06899977
4.08799982 1.454 6.19899988
3.57800007 1.86399996 6.14900017
3.20799994 2.03399992 6.38899994
4.22800016 1.60399997 6.14900017
3.13800001 1.52400005 6.31899977
3.49799991 1.50399995 6.24900007
2.91799998 1.55400002 6.37900019
2.57800007 1.77400005 6.329
3.65799999 1.92400002 6.329
2.86800003 2.00399995 6.23899984
3.36800003 1.33399999 6.06899977
2.51799989 1.48399997 6.04899979
4.20800018 1.65400004 6.34899998
3.53800011 1.43400002 6.16900015
3.97799993 1.50399995 6.25899982
3.67799997 1.87399995 6.16900015
2.51799989 2.01399994 6.16900015
3.52800012 1.84399998 6.12900019
2.55800009 1.03400004 6.08900023
4.20800018 1.63399994 6.23899984
2.57800007 1.97399998 6.14900017
2.56800008 1.574 6.31899977
4.25799990 1.92400002 6.13899994
3.65799999 1.52400005 6.27899981
3.26799989 1.86399996 6.11899996
3.01799989 1.48399997 6.19899988
4.31799984 1.67400002 6.29899979
2.55800009 2.0539999 6.22900009
2.54800010 0.98400003 6.23899984
3.76799989 1.44400001 6.10900021
3.22799993 1.76400006 6.16900015
2.74799991 2.0940001 6.38899994
3.47799993 1.77400005 6.24900007
2.53800011 2.0940001 6.36899996
3.50799990 1.99399996 6.38899994
2.62800002 1.96399999 6.1789999
4.26800013 1.11399996 6.27899981
3.89800000 1.46399999 6.16900015
4.14799976 1.74399996 6.15899992
3.44799995 1.88399994 6.16900015
2.56800008 1.18400002 6.079
3.67799997 1.30400002 6.18900013
2.59800005 1.97399998 6.16900015
3.88800001 1.454 6.14900017
2.50799990 1.93400002 6.22900009
2.72799993 1.85399997 6.1789999
3.65799999 1.93400002 6.34899998
3.64800000 1.33399999 6.03900003
3.63800001 1.44400001 6.08900023
3.44799995 1.824 6.09899998
3.40799999 1.78400004 6.12900019
2.51799989 1.94400001 6.11899996
4.16800022 1.46399999 6.18900013
3.87800002 1.37399995 6.02899981
4.26800013 1.23399997 6.24900007
4.29799986 1.15400004 6.06899977
2.54800010 1.00399995 6.24900007
3.93799996 1.80400002 6.05900002
4.33799982 1.47399998 6.10900021
2.89800000 1.36399996 6.02899981
3.16799998 1.44400001 6.13899994
4.02799988 1.94400001 6.34899998
2.52800012 1.61399996 6.31899977
3.46799994 1.42400002 6.06899977
4.30800009 1.84399998 6.13899994
2.50799990 1.91400003 6.22900009
4.19799995 1.84399998 6.15899992
3.31800008 1.77400005 6.31899977
2.55800009 1.074 6.22900009
4.01800013 1.83399999 6.10900021
3.22799993 1.68400002 6.38899994
2.83800006 1.44400001 6.09899998
2.68799996 1.55400002 6.33900023
3.55800009 1.78400004 6.12900019
3.05800009 1.42400002 6.03900003
4.30800009 1.204 6.06899977
2.55800009 1.15400004 6.28900003
3.11800003 1.78400004 6.11899996
3.65799999 1.60399997 6.37900019
3.30800009 1.84399998 6.10900021
3.46799994 1.77400005 6.29899979
3.81800008 1.76400006 6.1789999
4.08799982 1.75399995 6.14900017
4.04799986 1.83399999 6.10900021
3.50799990 1.30400002 6.19899988
2.47799993 0.98400003 6.03900003
3.29800010 1.37399995 6.02899981
3.47799993 1.824 6.08900023
4.24800014 1.44400001 6.08900023
2.55800009 1.64400005 6.20900011
4.10799980 1.83399999 6.26900005
4.25799990 1.28400004 6.27899981
2.53800011 1.90400004 6.10900021
3.88800001 1.54400003 6.23899984
3.18799996 1.704 6.38899994
2.61800003 1.89400005 6.13899994
3.25799990 1.31400001 6.14900017
2.71799994 2.08400011 6.34899998
2.90799999 1.81400001 6.079
3.00799990 1.43400002 6.08900023
2.54800010 0.89399999 6.10900021
4.07800007 1.47399998 6.19899988
3.09800005 1.91400003 6.22900009
3.30800009 1.77400005 6.329
2.76799989 1.454 6.10900021
3.36800003 1.77400005 6.31899977
3.17799997 2.02399993 6.34899998
2.56800008 1.90400004 6.12900019
4.02799988 1.30400002 6.16900015
4.26800013 1.68400002 6.09899998
4.20800018 1.65400004 6.38899994
3.92799997 1.80400002 6.06899977
4.10799980 1.33399999 6.079
3.91799998 1.28400004 6.20900011
4.20800018 1.26400006 6.19899988
3.05800009 1.46399999 6.15899992
2.57800007 1.26400006 6.10900021
4.13800001 1.40400004 6.02899981
2.77800012 2.0940001 6.38899994
2.60800004 2.03399992 6.22900009
3.71799994 1.88399994 6.1789999
2.79800010 1.78400004 6.08900023
3.67799997 1.77400005 6.1789999
3.62800002 1.92400002 6.30900002
2.60800004 1.86399996 6.12900019
3.89800000 1.39400005 6.02899981
4.20800018 1.74399996 6.35900021
3.36800003 1.50399995 6.33900023
4.16800022 1.71399999 6.10900021
3.46799994 1.36399996 6.02899981
3.21799994 1.77400005 6.34899998
2.76799989 2.00399995 6.23899984
3.84800005 1.54400003 6.26900005
3.11800003 1.77400005 6.33900023
3.15799999 1.64400005 6.38899994
3.60800004 1.44400001 6.09899998
2.62800002 1.41400003 6.03900003
3.21799994 1.60399997 6.38899994
4.19799995 1.28400004 6.15899992
4.21799994 1.68400002 6.16900015
2.93799996 1.78400004 6.10900021
2.47799993 1.67400002 6.31899977
3.11800003 1.51400006 6.27899981
3.42799997 1.50399995 6.31899977
4.16800022 1.68400002 6.38899994
3.50799990 1.81400001 6.08900023
3.90799999 1.76400006 6.1789999
3.28800011 1.76400006 6.19899988
3.87800002 1.83399999 6.12900019
3.63800001 1.454 6.09899998
3.70799994 1.46399999 6.12900019
2.87800002 1.454 6.11899996
3.59800005 1.77400005 6.18900013
3.92799997 1.87399995 6.1789999
3.47799993 1.77400005 6.34899998
3.80800009 1.77400005 6.12900019
3.08800006 1.43400002 6.079
3.58800006 1.76400006 6.36899996
3.08800006 1.33399999 6.06899977
3.58800006 1.31400001 6.1789999
2.56800008 1.324 6.14900017
2.97799993 1.44400001 6.08900023
3.19799995 1.67400002 6.38899994
3.58800006 1.51400006 6.36899996
3.27800012 1.76400006 6.28900003
3.89800000 1.53400004 6.20900011
2.64800000 1.83399999 6.12900019
3.77800012 1.81400001 6.079
3.64800000 1.52400005 6.35900021
2.56800008 1.59399998 6.24900007
4.32800007 1.21399999 6.09899998
3.51799989 1.58399999 6.37900019
3.04800010 1.33399999 6.02899981
3.92799997 1.30400002 6.15899992
2.50799990 1.91400003 6.16900015
3.96799994 1.76400006 6.26900005
4.21799994 1.69400001 6.24900007
2.78800011 1.49399996 6.22900009
4.13800001 1.75399995 6.24900007
4.24800014 1.56400001 6.09899998
3.78800011 1.76400006 6.19899988
2.73799992 1.77400005 6.34899998
2.55800009 1.04400003 6.14900017
4.18800020 1.89400005 6.23899984
3.75799990 1.48399997 6.1789999
3.71799994 1.86399996 6.15899992
2.53800011 0.87400001 6.16900015
4.31799984 1.62399995 6.26900005
3.24799991 1.53400004 6.35900021
2.93799996 1.44400001 6.10900021
3.67799997 1.53400004 6.25899982
3.42799997 1.84399998 6.12900019
3.90799999 1.53400004 6.26900005
3.51799989 1.77400005 6.329
3.60800004 1.51400006 6.21899986
2.66799998 1.77400005 6.34899998
2.48799992 1.574 6.05900002
3.80800009 1.88399994 6.1789999
2.50799990 1.39400005 6.03900003
3.49799991 1.77400005 6.35900021
4.25799990 1.574 6.26900005
2.78800011 2.08400011 6.22900009
3.52800012 1.31400001 6.15899992
3.20799994 1.77400005 6.13899994
3.26799989 1.51400006 6.33900023
4.27799988 1.15400004 6.19899988
2.99799991 1.83399999 6.13899994
4.18800020 1.75399995 6.30900002
4.24800014 1.49399996 6.09899998
4.27799988 1.31400001 6.08900023
3.22799993 1.43400002 6.08900023
3.99799991 1.41400003 6.04899979
3.49799991 1.52400005 6.30900002
2.83800006 1.91400003 6.21899986
4.20800018 1.52400005 6.19899988
2.54800010 1.64400005 6.34899998
4.23799992 1.67400002 6.1789999
4.26800013 1.26400006 6.26900005
3.84800005 1.78400004 6.09899998
3.52800012 1.52400005 6.35900021
3.25799990 1.76400006 6.37900019
3.50799990 1.34399998 6.02899981
3.87800002 1.76400006 6.22900009
2.63800001 1.53400004 6.25899982
3.15799999 1.86399996 6.09899998
2.55800009 1.71399999 6.14900017
4.31799984 1.71399999 6.29899979
2.75799990 1.954 6.23899984
4.10799980 1.74399996 6.12900019
3.93799996 1.54400003 6.33900023
2.54800010 1.58399999 6.30900002
3.50799990 1.33399999 6.079
2.56800008 1.52400005 6.20900011
2.74799991 2.06399989 6.26900005
3.50799990 1.88399994 6.16900015
3.25799990 1.55400002 6.36899996
4.17799997 1.71399999 6.12900019
2.49799991 1.99399996 6.30900002
4.26800013 1.69400001 6.18900013
2.57800007 2.0940001 6.31899977
4.20800018 1.59399998 6.35900021
3.52800012 1.77400005 6.21899986
4.00799990 1.94400001 6.34899998
3.71799994 1.54400003 6.33900023
2.63800001 1.86399996 6.13899994
4.20800018 1.60399997 6.27899981
3.38800001 1.43400002 6.079
2.76799989 1.33399999 6.02899981
4.00799990 1.36399996 6.02899981
3.00799990 1.47399998 6.16900015
4.16800022 1.74399996 6.25899982
3.44799995 1.42400002 6.05900002
2.55800009 1.59399998 6.31899977
3.94799995 1.53400004 6.21899986
2.88800001 1.324 6.15899992
2.74799991 1.31400001 6.20900011
2.77800012 1.52400005 6.29899979
4.00799990 1.29400003 6.20900011
4.26800013 1.28400004 6.25899982
2.72799993 1.53400004 6.29899979
3.68799996 1.33399999 6.08900023
2.47799993 1.91400003 6.09899998
3.26799989 1.51400006 6.31899977
3.93799996 1.88399994 6.1789999
4.07800007 1.75399995 6.1789999
3.02800012 1.50399995 6.25899982
4.26800013 1.84399998 6.33900023
3.65799999 1.77400005 6.23899984
3.85800004 1.83399999 6.11899996
2.54800010 0.94400001 6.16900015
4.27799988 1.01400006 6.27899981
4.08799982 1.574 6.33900023
2.75799990 1.48399997 6.20900011
3.26799989 1.94400001 6.13899994
2.90799999 1.324 6.14900017
4.26800013 0.96399999 6.329
2.93799996 1.454 6.11899996
3.49799991 1.67400002 6.38899994
2.74799991 1.99399996 6.24900007
3.09800005 1.77400005 6.16900015
3.48799992 1.98399997 6.37900019
3.21799994 1.47399998 6.1789999
3.14800000 2.03399992 6.34899998
2.55800009 1.73399997 6.23899984
4.26800013 1.28400004 6.18900013
2.51799989 1.97399998 6.11899996
3.42799997 1.88399994 6.15899992
2.55800009 1.71399999 6.34899998
3.32800007 1.76400006 6.1789999
2.88800001 2.0940001 6.329
3.27800012 1.43400002 6.079
2.70799994 1.77400005 6.10900021
3.69799995 1.92400002 6.34899998
2.56800008 1.61399996 6.16900015
3.06800008 1.43400002 6.08900023
3.92799997 1.48399997 6.18900013
4.02799988 1.39400005 6.02899981
3.50799990 1.954 6.25899982
3.87800002 1.93400002 6.329
4.27799988 1.05400002 6.24900007
2.64800000 1.49399996 6.19899988
2.94799995 1.44400001 6.09899998
3.75799990 1.76400006 6.38899994
4.02799988 1.78400004 6.08900023
2.47799993 2.02399993 6.14900017
3.74799991 1.76400006 6.36899996
2.70799994 1.88399994 6.1789999
3.98799992 1.65400004 6.38899994
2.75799990 1.54400003 6.329
3.88800001 1.76400006 6.25899982
3.96799994 1.77400005 6.10900021
4.21799994 1.81400001 6.15899992
2.87800002 2.08400011 6.25899982
2.55800009 1.72399998 6.21899986
2.63800001 2.07399988 6.28900003
3.93799996 1.85399997 6.15899992
3.50799990 1.43400002 6.18900013
3.54800010 1.31400001 6.15899992
2.51799989 1.54400003 6.04899979
4.25799990 1.31400001 6.16900015
4.27799988 1.09399998 6.08900023
3.70799994 1.94400001 6.35900021
4.02799988 1.48399997 6.25899982
3.13800001 1.67400002 6.37900019
4.12799978 1.80400002 6.09899998
3.30800009 1.66400003 6.38899994
3.74799991 1.80400002 6.05900002
3.89800000 1.44400001 6.13899994
2.62800002 1.53400004 6.26900005
2.97799993 1.47399998 6.16900015
4.08799982 1.33399999 6.02899981
3.66799998 1.33399999 6.05900002
4.24800014 1.66400003 6.21899986
3.13800001 1.77400005 6.33900023
2.55800009 1.14400005 6.27899981
3.74799991 1.90400004 6.16900015
2.81800008 1.36399996 6.03900003
3.73799992 1.46399999 6.14900017
3.07800007 1.87399995 6.1789999
3.21799994 1.40400004 6.03900003
4.26800013 1.29400003 6.19899988
3.81800008 1.77400005 6.23899984
3.60800004 1.77400005 6.16900015
3.58800006 1.33399999 6.04899979
2.73799992 1.59399998 6.37900019
2.66799998 2.00399995 6.23899984
4.11800003 1.75399995 6.35900021
2.52800012 1.99399996 6.35900021
4.28800011 1.04400003 6.10900021
2.64800000 1.86399996 6.14900017
2.92799997 1.89400005 6.21899986
2.81800008 1.53400004 6.35900021
2.51799989 2.00399995 6.329
4.18800020 1.67400002 6.37900019
4.24800014 1.87399995 6.13899994
4.02799988 1.33399999 6.03900003
4.28800011 1.76400006 6.30900002
3.37800002 1.61399996 6.37900019
4.14799976 1.35399997 6.02899981
2.63800001 1.84399998 6.13899994
3.26799989 1.40400004 6.03900003
2.54800010 1.66400003 6.1789999
3.04800010 1.39400005 6.03900003
2.84800005 1.96399999 6.23899984
2.68799996 1.324 6.1789999
3.94799995 1.33399999 6.06899977
4.27799988 1.23399997 6.11899996
3.99799991 1.42400002 6.10900021
2.63800001 1.42400002 6.03900003
3.13800001 2.04399991 6.34899998
4.27799988 1.76400006 6.22900009
4.25799990 1.53400004 6.28900003
3.45799994 1.42400002 6.08900023
3.24799991 1.49399996 6.21899986
2.98799992 2.07399988 6.36899996
4.16800022 1.71399999 6.079
2.56800008 1.81400001 6.08900023
3.47799993 1.42400002 6.12900019
2.55800009 1.074 6.15899992
4.21799994 1.64400005 6.23899984
3.99799991 1.94400001 6.35900021
4.13800001 1.61399996 6.34899998
2.62800002 1.77400005 6.33900023
3.82800007 1.93400002 6.34899998
2.91799998 1.324 6.1789999
3.87800002 1.76400006 6.19899988
3.02800012 1.79400003 6.08900023
4.30800009 1.42400002 6.05900002
2.68799996 1.60399997 6.36899996
4.12799978 1.67400002 6.38899994
4.17799997 1.80400002 6.12900019
3.44799995 1.77400005 6.30900002
2.68799996 1.42400002 6.04899979
3.80800009 1.76400006 6.16900015
4.25799990 1.21399999 6.329
4.10799980 1.66400003 6.38899994
2.57800007 1.26400006 6.13899994
3.16799998 1.48399997 6.18900013
4.05800009 1.33399999 6.04899979
2.53800011 1.51400006 6.04899979
3.21799994 1.67400002 6.37900019
2.79800010 1.324 6.18900013
2.56800008 1.574 6.10900021
2.88800001 2.0940001 6.30900002
3.11800003 2.01399994 6.31899977
3.87800002 1.76400006 6.15899992
2.54800010 1.79400003 6.20900011
2.49799991 1.93400002 6.16900015
3.53800011 1.77400005 6.329
2.66799998 1.87399995 6.15899992
4.26800013 0.954 6.29899979
2.49799991 1.65400004 6.25899982
2.84800005 1.86399996 6.1789999
3.75799990 1.42400002 6.079
3.50799990 1.78400004 6.11899996
4.18800020 1.33399999 6.06899977
4.08799982 1.58399999 6.34899998
3.93799996 1.33399999 6.02899981
4.20800018 1.69400001 6.1789999
3.67799997 1.79400003 6.09899998
4.27799988 0.93400002 6.1789999
3.74799991 1.87399995 6.1789999
4.23799992 1.50399995 6.27899981
3.42799997 1.96399999 6.14900017
3.49799991 1.49399996 6.21899986
4.04799986 1.86399996 6.22900009
2.70799994 1.324 6.16900015
3.36800003 1.99399996 6.35900021
2.83800006 1.87399995 6.20900011
3.04800010 1.85399997 6.19899988
3.12800002 1.59399998 6.37900019
4.01800013 1.65400004 6.38899994
2.83800006 2.0539999 6.23899984
3.88800001 1.36399996 6.02899981
4.10799980 1.84399998 6.23899984
3.18799996 2.03399992 6.38899994
3.24799991 1.81400001 6.079
2.57800007 1.92400002 6.13899994
4.25799990 1.77400005 6.11899996
2.67799997 1.44400001 6.09899998
4.20800018 1.60399997 6.36899996
3.96799994 1.46399999 6.1789999
3.26799989 1.31400001 6.15899992
2.50799990 1.954 6.22900009
2.52800012 2.00399995 6.33900023
3.01799989 1.77400005 6.36899996
2.52800012 1.34399998 6.02899981
3.33800006 1.50399995 6.31899977
2.82800007 1.33399999 6.04899979
3.44799995 1.51400006 6.329
3.60800004 1.49399996 6.18900013
2.55800009 0.98400003 6.27899981
3.08800006 1.50399995 6.25899982
2.56800008 1.31400001 6.21899986
2.55800009 1.16400003 6.24900007
4.00799990 1.93400002 6.33900023
3.40799999 1.954 6.14900017
3.89800000 1.51400006 6.19899988
3.90799999 1.46399999 6.1789999
3.02800012 2.04399991 6.28900003
4.31799984 1.03400004 6.08900023
2.72799993 1.77400005 6.08900023
4.27799988 1.04400003 6.25899982
2.94799995 1.58399999 6.37900019
2.75799990 1.33399999 6.04899979
3.80800009 1.90400004 6.16900015
3.92799997 1.58399999 6.35900021
4.26800013 1.16400003 6.24900007
2.60800004 1.77400005 6.33900023
3.28800011 1.91400003 6.14900017
2.74799991 1.93400002 6.23899984
3.34800005 1.99399996 6.34899998
2.82800007 2.0940001 6.26900005
4.29799986 1.28400004 6.05900002
3.55800009 1.91400003 6.22900009
3.24799991 1.77400005 6.35900021
2.55800009 1.08399999 6.04899979
3.30800009 1.41400003 6.03900003
3.15799999 1.49399996 6.23899984
3.62800002 1.78400004 6.10900021
4.35799980 1.80400002 6.38899994
3.62800002 1.77400005 6.25899982
4.03800011 1.324 6.11899996
4.04799986 1.54400003 6.329
4.00799990 1.54400003 6.19899988
3.30800009 1.88399994 6.13899994
2.51799989 1.64400005 6.25899982
4.28800011 1.06400001 6.08900023
3.87800002 1.62399995 6.38899994
2.47799993 1.88399994 6.21899986
3.56800008 1.824 6.08900023
4.25799990 1.28400004 6.31899977
3.23799992 1.63399994 6.37900019
2.54800010 1.97399998 6.29899979
4.22800016 1.34399998 6.01900005
2.54800010 1.28400004 6.06899977
2.62800002 1.99399996 6.19899988
2.55800009 1.01400006 6.04899979
4.15799999 1.80400002 6.11899996
3.26799989 1.43400002 6.08900023
3.65799999 1.324 6.15899992
2.68799996 1.87399995 6.16900015
3.96799994 1.83399999 6.10900021
4.26800013 1.22399998 6.25899982
2.85800004 1.33399999 6.03900003
3.57800007 1.42400002 6.08900023
2.54800010 0.954 6.08900023
2.47799993 1.93400002 6.09899998
2.66799998 1.91400003 6.16900015
2.51799989 1.43400002 6.03900003
2.62800002 1.78400004 6.19899988
4.26800013 1.05400002 6.27899981
2.53800011 1.67400002 6.19899988
3.76799989 1.96399999 6.38899994
2.52800012 2.07399988 6.36899996
3.28800011 1.78400004 6.09899998
2.48799992 1.89400005 6.09899998
4.07800007 1.85399997 6.24900007
2.59800005 1.86399996 6.11899996
3.92799997 1.47399998 6.1789999
3.67799997 1.33399999 6.12900019
3.39800000 1.42400002 6.11899996
2.54800010 0.99400002 6.26900005
3.22799993 1.66400003 6.37900019
3.33800006 1.86399996 6.12900019
2.49799991 1.68400002 6.27899981
2.52800012 1.65400004 6.33900023
2.50799990 1.17400002 6.05900002
4.17799997 1.86399996 6.22900009
4.30800009 1.51400006 6.08900023
4.26800013 1.78400004 6.22900009
2.55800009 1.02400005 6.28900003
2.56800008 1.11399996 6.11899996
4.28800011 1.84399998 6.35900021
2.84800005 2.10400009 6.329
3.17799997 1.77400005 6.36899996
4.20800018 1.50399995 6.33900023
4.26800013 1.19400001 6.28900003
2.80800009 1.78400004 6.079
2.81800008 1.80400002 6.079
2.75799990 2.08400011 6.25899982
3.12800002 1.92400002 6.16900015
3.09800005 1.99399996 6.26900005
4.10799980 1.28400004 6.21899986
3.50799990 1.76400006 6.18900013
2.90799999 1.54400003 6.36899996
3.46799994 1.89400005 6.1789999
3.86800003 1.77400005 6.34899998
3.98799992 1.76400006 6.38899994
2.56800008 1.13399994 6.10900021
3.76799989 1.33399999 6.13899994
4.14799976 1.74399996 6.13899994
3.83800006 1.77400005 6.329
4.00799990 1.49399996 6.26900005
3.95799994 1.60399997 6.36899996
3.49799991 1.65400004 6.38899994
3.47799993 1.31400001 6.14900017
3.33800006 1.33399999 6.03900003
3.01799989 1.50399995 6.26900005
3.92799997 1.52400005 6.26900005
3.78800011 1.64400005 6.38899994
2.54800010 0.99400002 6.15899992
3.86800003 1.60399997 6.36899996
3.45799994 1.97399998 6.24900007
3.52800012 1.94400001 6.31899977
2.88800001 1.42400002 6.04899979
2.63800001 1.77400005 6.329
3.95799994 1.33399999 6.02899981
3.88800001 1.92400002 6.31899977
4.24800014 1.48399997 6.11899996
2.52800012 1.03400004 6.04899979
3.27800012 1.76400006 6.37900019
4.21799994 1.48399997 6.30900002
4.12799978 1.35399997 6.02899981
4.26800013 1.27400005 6.12900019
4.01800013 1.88399994 6.24900007
2.65799999 1.47399998 6.15899992
2.84800005 1.49399996 6.23899984
3.01799989 1.44400001 6.09899998
4.21799994 1.90400004 6.18900013
3.03800011 1.56400001 6.36899996
4.22800016 1.68400002 6.09899998
3.02800012 1.33399999 6.04899979
3.86800003 1.59399998 6.35900021
3.93799996 1.44400001 6.20900011
3.60800004 1.954 6.34899998
3.71799994 1.33399999 6.10900021
2.54800010 0.91399997 6.13899994
4.23799992 1.67400002 6.20900011
4.23799992 1.43400002 6.13899994
3.76799989 1.60399997 6.37900019
3.94799995 1.64400005 6.38899994
2.56800008 1.25399995 6.24900007
2.54800010 1.78400004 6.18900013
3.02800012 1.37399995 6.02899981
3.08800006 1.42400002 6.05900002
4.26800013 1.18400002 6.30900002
2.88800001 1.43400002 6.06899977
3.11800003 1.72399998 6.38899994
3.27800012 1.77400005 6.13899994
3.95799994 1.77400005 6.33900023
2.63800001 2.08400011 6.36899996
2.81800008 1.33399999 6.079
3.52800012 1.50399995 6.34899998
4.27799988 1.12399995 6.06899977
4.27799988 1.16400003 6.03900003
3.34800005 1.76400006 6.37900019
2.51799989 1.94400001 6.31899977
3.83800006 1.78400004 6.10900021
4.27799988 1.02400005 6.21899986
4.25799990 1.80400002 6.26900005
4.22800016 1.36399996 6.02899981
3.86800003 1.54400003 6.24900007
3.61800003 1.77400005 6.18900013
4.07800007 1.954 6.37900019
2.98799992 1.77400005 6.12900019
2.57800007 2.06399989 6.24900007
3.80800009 1.63399994 6.38899994
2.47799993 1.00399995 6.03900003
2.55800009 1.09399998 6.11899996
3.37800002 1.99399996 6.36899996
3.42799997 1.63399994 6.37900019
3.83800006 1.93400002 6.31899977
4.27799988 1.09399998 6.15899992
3.87800002 1.89400005 6.1789999
4.10799980 1.76400006 6.09899998
2.49799991 1.38399994 6.03900003
3.94799995 1.53400004 6.33900023
2.67799997 1.92400002 6.1789999
3.70799994 1.80400002 6.05900002
4.00799990 1.87399995 6.23899984
2.85800004 1.42400002 6.03900003
3.32800007 1.77400005 6.35900021
4.05800009 1.454 6.27899981
2.52800012 0.99400002 6.03900003
4.15799999 1.33399999 6.05900002
3.26799989 1.79400003 6.06899977
3.17799997 1.30400002 6.21899986
3.48799992 1.51400006 6.329
4.24800014 1.51400006 6.10900021
2.57800007 1.79400003 6.27899981
3.20799994 1.36399996 6.02899981
4.01800013 1.90400004 6.27899981
2.55800009 0.94400001 6.24900007
3.61800003 1.91400003 6.29899979
2.66799998 1.59399998 6.35900021
3.57800007 1.97399998 6.37900019
4.12799978 1.74399996 6.09899998
4.14799976 1.75399995 6.25899982
3.03800011 1.83399999 6.11899996
3.83800006 1.62399995 6.38899994
2.79800010 1.40400004 6.03900003
2.56800008 1.62399995 6.12900019
4.21799994 1.42400002 6.06899977
3.45799994 1.574 6.36899996
2.86800003 1.824 6.11899996
3.86800003 1.76400006 6.38899994
4.22800016 1.94400001 6.35900021
2.97799993 1.38399994 6.03900003
3.90799999 1.76400006 6.35900021
4.19799995 1.96399999 6.36899996
2.76799989 1.91400003 6.21899986
2.55800009 2.04399991 6.21899986
3.19799995 1.71399999 6.38899994
2.80800009 1.90400004 6.21899986
2.92799997 1.48399997 6.19899988
2.54800010 0.884 6.22900009
2.60800004 1.31400001 6.19899988
3.40799999 1.78400004 6.10900021
2.60800004 1.824 6.10900021
4.21799994 1.98399997 6.38899994
3.24799991 1.824 6.08900023
3.36800003 1.30400002 6.16900015
4.29799986 1.53400004 6.08900023
3.83800006 1.44400001 6.11899996
2.56800008 1.454 6.03900003
4.30800009 1.47399998 6.06899977
3.82800007 1.58399999 6.36899996
3.06800008 1.88399994 6.19899988
4.11800003 1.59399998 6.34899998
3.23799992 1.40400004 6.03900003
3.28800011 1.77400005 6.11899996
2.66799998 1.56400001 6.34899998
3.63800001 1.454 6.11899996
2.51799989 1.65400004 6.329
4.07800007 1.29400003 6.1789999
3.20799994 1.78400004 6.09899998
4.24800014 1.81400001 6.29899979
4.21799994 1.47399998 6.1789999
3.15799999 2.04399991 6.36899996
2.97799993 1.84399998 6.14900017
2.97799993 1.87399995 6.20900011
2.54800010 1.69400001 6.05900002
3.96799994 1.49399996 6.20900011
4.26800013 1.62399995 6.09899998
3.06800008 1.35399997 6.02899981
3.27800012 1.67400002 6.38899994
2.47799993 1.97399998 6.14900017
3.13800001 1.77400005 6.37900019
4.21799994 1.71399999 6.329
2.47799993 1.29400003 6.04899979
3.26799989 1.49399996 6.23899984
2.53800011 1.86399996 6.27899981
3.44799995 1.29400003 6.20900011
4.25799990 1.23399997 6.329
3.29800010 1.43400002 6.12900019
2.71799994 2.03399992 6.27899981
4.22800016 1.85399997 6.15899992
4.25799990 1.92400002 6.36899996
4.25799990 1.68400002 6.22900009
4.27799988 0.954 6.28900003
2.55800009 2.08400011 6.329
2.47799993 1.94400001 6.24900007
3.09800005 1.39400005 6.03900003
4.30800009 1.38399994 6.05900002
2.86800003 1.90400004 6.21899986
2.59800005 1.59399998 6.33900023
4.31799984 1.50399995 6.08900023
2.50799990 1.98399997 6.12900019
3.19799995 1.77400005 6.31899977
3.96799994 1.42400002 6.08900023
2.55800009 1.56400001 6.04899979
2.67799997 2.02399993 6.25899982
2.54800010 1.37399995 6.03900003
2.53800011 0.89399999 6.02899981
2.49799991 1.704 6.05900002
3.50799990 1.61399996 6.37900019
3.96799994 1.64400005 6.37900019
2.51799989 1.08399999 6.04899979
4.03800011 1.91400003 6.30900002
4.28800011 1.574 6.08900023
3.46799994 1.33399999 6.05900002
4.00799990 1.92400002 6.31899977
3.33800006 1.46399999 6.15899992
2.55800009 1.19400001 6.28900003
4.05800009 1.50399995 6.30900002
3.11800003 1.93400002 6.21899986
4.20800018 1.62399995 6.31899977
2.64800000 2.08400011 6.31899977
2.55800009 1.09399998 6.22900009
4.18800020 1.86399996 6.20900011
2.51799989 1.15400004 6.05900002
2.62800002 1.78400004 6.21899986
2.55800009 1.40400004 6.03900003
2.53800011 0.97399998 6.03900003
3.79800010 1.76400006 6.14900017
2.56800008 1.79400003 6.22900009
4.28800011 1.71399999 6.20900011
2.55800009 1.21399999 6.31899977
2.79800010 1.93400002 6.21899986
2.63800001 1.58399999 6.34899998
2.87800002 1.43400002 6.079
4.01800013 1.52400005 6.1789999
3.29800010 1.76400006 6.27899981
2.60800004 1.44400001 6.08900023
4.25799990 1.31400001 6.08900023
2.56800008 1.76400006 6.34899998
3.27800012 1.51400006 6.329
3.89800000 1.61399996 6.37900019
4.31799984 1.00399995 6.079
4.17799997 1.73399997 6.19899988
4.18800020 1.39400005 6.02899981
4.18800020 1.65400004 6.37900019
3.06800008 2.0539999 6.329
2.69799995 1.91400003 6.18900013
3.05800009 1.98399997 6.25899982
3.89800000 1.30400002 6.14900017
3.54800010 1.55400002 6.36899996
3.96799994 1.38399994 6.02899981
3.77800012 1.77400005 6.28900003
3.71799994 1.76400006 6.16900015
2.66799998 1.52400005 6.25899982
4.11800003 1.824 6.09899998
2.79800010 1.79400003 6.06899977
4.21799994 1.27400005 6.16900015
3.26799989 1.30400002 6.1789999
3.26799989 1.76400006 6.24900007
3.68799996 1.76400006 6.21899986
2.51799989 1.21399999 6.05900002
2.52800012 1.83399999 6.079
4.11800003 1.76400006 6.38899994
3.34800005 1.48399997 6.1789999
4.03800011 1.87399995 6.21899986
2.62800002 1.63399994 6.36899996
4.21799994 1.87399995 6.15899992
2.55800009 1.06400001 6.06899977
2.79800010 1.38399994 6.03900003
4.11800003 1.75399995 6.23899984
2.57800007 1.59399998 6.329
2.51799989 1.68400002 6.23899984
4.21799994 1.48399997 6.28900003
4.01800013 1.87399995 6.20900011
2.57800007 1.454 6.09899998
2.54800010 0.96399999 6.22900009
3.81800008 1.33399999 6.13899994
4.28800011 1.51400006 6.06899977
2.98799992 1.78400004 6.11899996
2.72799993 1.94400001 6.22900009
2.50799990 1.93400002 6.25899982
3.87800002 1.78400004 6.09899998
3.02800012 1.77400005 6.35900021
4.29799986 1.02400005 6.05900002
2.96799994 1.97399998 6.24900007
3.12800002 1.39400005 6.03900003
3.32800007 1.76400006 6.15899992
3.71799994 1.33399999 6.15899992
3.93799996 1.46399999 6.22900009
3.29800010 1.454 6.14900017
4.27799988 1.06400001 6.18900013
3.67799997 1.824 6.08900023
4.25799990 1.79400003 6.31899977
4.01800013 1.52400005 6.31899977
3.62800002 1.61399996 6.37900019
2.83800006 1.84399998 6.15899992
4.08799982 1.76400006 6.24900007
2.53800011 0.84399998 6.10900021
4.21799994 1.68400002 6.19899988
2.70799994 1.33399999 6.079
3.38800001 1.77400005 6.26900005
4.21799994 1.66400003 6.29899979
3.39800000 1.33399999 6.079
3.33800006 1.51400006 6.18900013
3.99799991 1.44400001 6.23899984
4.20800018 1.68400002 6.38899994
2.84800005 2.01399994 6.23899984
2.56800008 1.15400004 6.12900019
4.23799992 1.59399998 6.13899994
2.49799991 1.14400005 6.05900002
4.20800018 1.65400004 6.18900013
3.76799989 1.52400005 6.27899981
3.91799998 1.33399999 6.04899979
4.24800014 1.30400002 6.15899992
3.80800009 1.56400001 6.34899998
3.15799999 1.47399998 6.1789999
4.22800016 1.55400002 6.21899986
3.19799995 1.78400004 6.11899996
2.60800004 1.51400006 6.21899986
4.26800013 1.324 6.08900023
2.84800005 1.454 6.12900019
3.83800006 1.87399995 6.1789999
3.36800003 1.79400003 6.08900023
2.54800010 2.02399993 6.18900013
2.55800009 1.71399999 6.1789999
3.44799995 1.97399998 6.36899996
2.56800008 2.00399995 6.16900015
2.61800003 1.84399998 6.12900019
4.10799980 1.38399994 6.02899981
3.14800000 1.43400002 6.08900023
4.19799995 1.68400002 6.08900023
4.04799986 1.60399997 6.35900021
2.70799994 1.43400002 6.079
2.50799990 1.65400004 6.05900002
3.42799997 1.77400005 6.329
2.56800008 1.74399996 6.36899996
2.53800011 1.93400002 6.11899996
3.10800004 1.92400002 6.23899984
3.24799991 1.77400005 6.31899977
2.53800011 1.85399997 6.08900023
2.82800007 1.90400004 6.21899986
3.96799994 1.88399994 6.21899986
3.98799992 1.38399994 6.02899981
3.51799989 1.94400001 6.329
2.87800002 1.89400005 6.21899986
2.56800008 1.16400003 6.06899977
3.50799990 1.52400005 6.31899977
4.26800013 1.19400001 6.24900007
3.49799991 1.44400001 6.20900011
2.84800005 1.53400004 6.35900021
4.29799986 1.73399997 6.31899977
3.15799999 1.40400004 6.03900003
4.28800011 1.27400005 6.04899979
2.54800010 1.58399999 6.04899979
3.18799996 1.76400006 6.19899988
4.27799988 1.10399997 6.19899988
4.28800011 1.05400002 6.06899977
4.03800011 1.92400002 6.31899977
3.42799997 1.59399998 6.37900019
3.89800000 1.33399999 6.079
3.91799998 1.39400005 6.02899981
3.45799994 1.324 6.13899994
3.03800011 1.48399997 6.19899988
4.28800011 1.824 6.34899998
4.20800018 1.704 6.23899984
3.78800011 1.93400002 6.35900021
3.90799999 1.63399994 6.38899994
4.20800018 1.53400004 6.329
3.26799989 1.75399995 6.16900015
3.79800010 1.61399996 6.38899994
2.88800001 2.07399988 6.24900007
4.22800016 1.51400006 6.16900015
2.95799994 2.06399989 6.26900005
2.84800005 2.0940001 6.31899977
3.04800010 1.43400002 6.06899977
3.68799996 1.77400005 6.23899984
3.63800001 1.824 6.09899998
2.89800000 2.01399994 6.24900007
2.74799991 1.49399996 6.20900011
3.85800004 1.85399997 6.14900017
4.32800007 1.43400002 6.079
4.06799984 1.56400001 6.33900023
2.96799994 1.85399997 6.18900013
3.09800005 2.02399993 6.31899977
3.05800009 1.51400006 6.29899979
3.84800005 1.56400001 6.34899998
3.92799997 1.90400004 6.27899981
3.37800002 1.63399994 6.37900019
2.56800008 1.30400002 6.079
3.36800003 1.454 6.1789999
2.50799990 1.94400001 6.24900007
3.25799990 1.30400002 6.18900013
4.20800018 1.69400001 6.14900017
2.53800011 2.0539999 6.35900021
3.38800001 1.39400005 6.03900003
4.01800013 1.33399999 6.09899998
2.63800001 1.954 6.1789999
3.18799996 1.55400002 6.35900021
2.74799991 1.824 6.10900021
2.56800008 1.52400005 6.12900019
4.31799984 1.38399994 6.079
3.31800008 1.50399995 6.29899979
3.68799996 1.37399995 6.02899981
3.33800006 1.42400002 6.05900002
2.79800010 1.77400005 6.12900019
2.76799989 2.08400011 6.24900007
2.55800009 1.204 6.29899979
4.26800013 1.11399996 6.329
4.09800005 1.61399996 6.35900021
3.37800002 1.79400003 6.09899998
3.16799998 1.85399997 6.08900023
3.15799999 1.454 6.11899996
2.55800009 1.77400005 6.06899977
3.93799996 1.47399998 6.24900007
4.26800013 1.81400001 6.24900007
3.37800002 1.42400002 6.10900021
2.91799998 1.78400004 6.08900023
4.23799992 1.81400001 6.31899977
4.27799988 1.074 6.24900007
3.58800006 1.33399999 6.06899977
2.91799998 1.52400005 6.30900002
4.12799978 1.86399996 6.29899979
2.95799994 1.53400004 6.36899996
2.50799990 1.63399994 6.28900003
3.90799999 1.54400003 6.33900023
2.83800006 1.80400002 6.06899977
2.51799989 1.83399999 6.25899982
2.55800009 1.074 6.18900013
3.61800003 1.93400002 6.329
2.52800012 2.0940001 6.38899994
3.99799991 1.50399995 6.26900005
3.31800008 1.76400006 6.26900005
2.52800012 1.85399997 6.26900005
4.27799988 0.99400002 6.22900009
2.98799992 1.51400006 6.28900003
2.95799994 1.78400004 6.10900021
2.68799996 1.47399998 6.15899992
4.30800009 1.75399995 6.33900023
3.43799996 1.77400005 6.14900017
4.20800018 1.58399999 6.19899988
3.70799994 1.76400006 6.13899994
3.68799996 1.47399998 6.12900019
4.08799982 1.84399998 6.25899982
3.73799992 1.31400001 6.16900015
3.56800008 1.51400006 6.18900013
3.63800001 1.80400002 6.05900002
3.14800000 1.92400002 6.12900019
2.55800009 1.05400002 6.19899988
4.10799980 1.30400002 6.20900011
4.18800020 1.33399999 6.02899981
2.53800011 0.87400001 6.19899988
3.97799993 1.324 6.11899996
4.17799997 1.75399995 6.28900003
2.96799994 1.77400005 6.12900019
3.42799997 1.42400002 6.079
3.64800000 1.76400006 6.20900011
3.33800006 1.79400003 6.079
4.08799982 1.324 6.15899992
2.56800008 1.59399998 6.20900011
3.76799989 1.92400002 6.30900002
3.37800002 1.31400001 6.15899992
4.01800013 1.29400003 6.1789999
3.87800002 1.55400002 6.34899998
3.47799993 1.42400002 6.10900021
4.20800018 1.29400003 6.13899994
3.57800007 1.48399997 6.11899996
2.57800007 1.50399995 6.1789999
2.56800008 1.074 6.05900002
3.08800006 1.61399996 6.38899994
3.91799998 1.324 6.12900019
2.56800008 1.53400004 6.18900013
3.41799998 1.98399997 6.329
3.47799993 1.87399995 6.15899992
3.59800005 1.47399998 6.11899996
3.78800011 1.89400005 6.1789999
3.98799992 1.33399999 6.06899977
4.17799997 1.42400002 6.06899977
3.30800009 1.49399996 6.1789999
4.28800011 1.65400004 6.25899982
3.04800010 1.47399998 6.16900015
3.05800009 2.01399994 6.26900005
2.63800001 2.0539999 6.26900005
2.92799997 1.53400004 6.35900021
3.34800005 1.69400001 6.38899994
2.47799993 1.67400002 6.25899982
2.56800008 1.15400004 6.05900002
4.30800009 1.23399997 6.06899977
2.77800012 1.81400001 6.08900023
2.69799995 1.62399995 6.38899994
4.23799992 1.83399999 6.28900003
3.21799994 1.80400002 6.05900002
3.55800009 1.38399994 6.02899981
3.87800002 1.58399999 6.35900021
3.46799994 1.64400005 6.37900019
2.48799992 2.00399995 6.31899977
2.80800009 1.80400002 6.06899977
3.95799994 1.49399996 6.27899981
2.55800009 2.07399988 6.27899981
3.97799993 1.50399995 6.16900015
2.59800005 1.49399996 6.1789999
3.02800012 1.99399996 6.25899982
4.31799984 1.09399998 6.079
4.13800001 1.75399995 6.329
4.28800011 0.91399997 6.05900002
3.89800000 1.76400006 6.12900019
3.11800003 1.89400005 6.13899994
2.93799996 1.51400006 6.29899979
3.49799991 1.94400001 6.18900013
3.06800008 1.91400003 6.22900009
4.22800016 1.51400006 6.14900017
2.99799991 1.85399997 6.1789999
3.95799994 1.76400006 6.28900003
2.80800009 1.39400005 6.03900003
4.16800022 1.91400003 6.33900023
3.84800005 1.84399998 6.13899994
4.26800013 1.22399998 6.23899984
4.10799980 1.454 6.28900003
3.41799998 1.77400005 6.23899984
2.63800001 2.03399992 6.23899984
3.64800000 1.81400001 6.079
3.81800008 1.30400002 6.16900015
2.54800010 0.884 6.16900015
3.90799999 1.85399997 6.14900017
3.03800011 1.80400002 6.05900002
3.70799994 1.53400004 6.34899998
3.85800004 1.54400003 6.29899979
3.96799994 1.76400006 6.19899988
2.63800001 1.50399995 6.20900011
2.47799993 1.53400004 6.04899979
4.30800009 1.454 6.06899977
4.18800020 1.75399995 6.33900023
2.73799992 1.77400005 6.09899998
4.28800011 1.02400005 6.10900021
2.68799996 1.33399999 6.02899981
4.10799980 1.50399995 6.29899979
3.08800006 1.44400001 6.08900023
2.75799990 1.43400002 6.06899977
4.00799990 1.31400001 6.11899996
2.74799991 1.324 6.14900017
3.29800010 1.48399997 6.1789999
3.93799996 1.83399999 6.11899996
4.28800011 1.43400002 6.04899979
3.54800010 1.77400005 6.25899982
2.89800000 1.49399996 6.24900007
3.45799994 1.97399998 6.22900009
4.19799995 1.63399994 6.37900019
3.66799998 1.78400004 6.10900021
4.30800009 1.72399998 6.29899979
4.31799984 1.34399998 6.079
3.69799995 1.92400002 6.329
3.00799990 1.954 6.23899984
2.95799994 1.33399999 6.02899981
2.56800008 1.53400004 6.22900009
3.30800009 1.43400002 6.10900021
3.02800012 1.58399999 6.36899996
2.96799994 1.46399999 6.15899992
3.99799991 1.46399999 6.1789999
3.83800006 1.76400006 6.1789999
3.35800004 1.76400006 6.19899988
2.75799990 1.51400006 6.26900005
3.55800009 1.77400005 6.21899986
2.97799993 1.42400002 6.05900002
3.56800008 1.42400002 6.13899994
4.19799995 1.704 6.13899994
3.26799989 1.77400005 6.36899996
4.11800003 1.33399999 6.05900002
3.85800004 1.53400004 6.31899977
3.74799991 1.54400003 6.34899998
3.41799998 1.81400001 6.079
4.33799982 1.08399999 6.09899998
2.67799997 1.86399996 6.15899992
3.29800010 1.49399996 6.25899982
2.57800007 1.59399998 6.06899977
4.28800011 1.01400006 6.11899996
3.46799994 1.78400004 6.11899996
2.55800009 1.03400004 6.16900015
3.43799996 1.93400002 6.16900015
3.85800004 1.86399996 6.16900015
4.12799978 1.75399995 6.16900015
3.39800000 1.38399994 6.02899981
3.42799997 1.86399996 6.14900017
3.83800006 1.54400003 6.30900002
2.97799993 1.46399999 6.13899994
4.24800014 1.44400001 6.10900021
2.83800006 1.46399999 6.13899994
3.33800006 1.574 6.37900019
3.51799989 1.31400001 6.1789999
2.81800008 1.83399999 6.13899994
4.27799988 0.97399998 6.18900013
3.95799994 1.574 6.35900021
2.62800002 1.60399997 6.34899998
2.58800006 1.76400006 6.33900023
4.30800009 1.88399994 6.38899994
4.07800007 1.34399998 6.02899981
4.25799990 1.25399995 6.30900002
2.81800008 1.80400002 6.05900002
3.79800010 1.55400002 6.33900023
4.26800013 1.19400001 6.18900013
3.44799995 1.97399998 6.1789999
2.96799994 1.34399998 6.02899981
3.93799996 1.53400004 6.26900005
3.58800006 1.44400001 6.11899996
2.65799999 1.89400005 6.15899992
4.27799988 1.53400004 6.06899977
3.89800000 1.89400005 6.1789999
3.38800001 1.78400004 6.12900019
4.16800022 1.85399997 6.24900007
3.02800012 1.78400004 6.11899996
4.27799988 1.46399999 6.04899979
2.47799993 1.42400002 6.03900003
3.63800001 1.77400005 6.1789999
3.58800006 1.38399994 6.02899981
4.00799990 1.33399999 6.08900023
4.26800013 1.86399996 6.11899996
3.51799989 1.53400004 6.36899996
3.10800004 1.98399997 6.26900005
2.75799990 1.86399996 6.18900013
3.33800006 1.43400002 6.13899994
2.93799996 1.47399998 6.18900013
2.75799990 1.85399997 6.1789999
3.09800005 1.31400001 6.14900017
3.58800006 1.77400005 6.25899982
3.31800008 1.77400005 6.33900023
3.40799999 1.50399995 6.34899998
3.38800001 1.33399999 6.06899977
2.49799991 1.66400003 6.24900007
4.26800013 1.16400003 6.19899988
3.81800008 1.55400002 6.29899979
4.04799986 1.78400004 6.079
3.63800001 1.51400006 6.33900023
4.12799978 1.42400002 6.08900023
3.47799993 1.324 6.11899996
3.67799997 1.36399996 6.02899981
4.26800013 1.15400004 6.23899984
3.23799992 1.78400004 6.10900021
3.06800008 2.06399989 6.37900019
4.04799986 1.46399999 6.28900003
4.26800013 1.55400002 6.06899977
4.16800022 1.74399996 6.15899992
3.17799997 1.50399995 6.23899984
3.86800003 1.76400006 6.20900011
3.85800004 1.44400001 6.11899996
4.13800001 1.36399996 6.02899981
3.41799998 1.43400002 6.18900013
4.26800013 1.704 6.10900021
2.61800003 2.07399988 6.27899981
4.23799992 1.29400003 6.12900019
3.12800002 1.31400001 6.19899988
4.24800014 1.52400005 6.09899998
4.27799988 1.25399995 6.10900021
4.13800001 1.42400002 6.10900021
4.27799988 1.72399998 6.15899992
3.96799994 1.58399999 6.35900021
3.97799993 1.824 6.09899998
2.75799990 1.77400005 6.35900021
3.84800005 1.80400002 6.05900002
3.84800005 1.31400001 6.15899992
4.01800013 1.50399995 6.1789999
4.29799986 1.87399995 6.37900019
3.65799999 1.77400005 6.16900015
2.69799995 1.76400006 6.11899996
4.12799978 1.33399999 6.02899981
3.81800008 1.41400003 6.05900002
3.34800005 1.76400006 6.25899982
4.10799980 1.49399996 6.18900013
4.10799980 1.324 6.1789999
2.80800009 1.43400002 6.06899977
2.65799999 1.50399995 6.21899986
4.27799988 0.954 6.1789999
4.17799997 1.574 6.34899998
4.28800011 1.01400006 6.079
2.60800004 1.60399997 6.34899998
4.23799992 1.62399995 6.15899992
3.66799998 1.62399995 6.38899994
3.76799989 1.76400006 6.1789999
3.74799991 1.33399999 6.04899979
3.95799994 1.41400003 6.05900002
4.01800013 1.77400005 6.10900021
3.00799990 1.454 6.13899994
3.96799994 1.43400002 6.13899994
3.22799993 1.64400005 6.37900019
4.27799988 1.30400002 6.079
3.87800002 1.46399999 6.1789999
3.35800004 1.66400003 6.38899994
2.54800010 1.92400002 6.30900002
4.23799992 1.65400004 6.10900021
3.87800002 1.77400005 6.27899981
3.79800010 1.54400003 6.29899979
2.56800008 1.16400003 6.11899996
2.55800009 1.324 6.06899977
4.14799976 1.89400005 6.31899977
3.95799994 1.93400002 6.33900023
3.36800003 1.30400002 6.18900013
4.22800016 1.67400002 6.16900015
4.21799994 1.72399998 6.10900021
3.40799999 1.88399994 6.15899992
3.72799993 1.87399995 6.16900015
2.54800010 1.03400004 6.27899981
2.63800001 1.51400006 6.22900009
2.55800009 0.99400002 6.11899996
3.71799994 1.55400002 6.36899996
3.00799990 2.07399988 6.35900021
3.55800009 1.51400006 6.1789999
3.71799994 1.77400005 6.28900003
4.01800013 1.41400003 6.03900003
3.41799998 1.79400003 6.09899998
3.27800012 1.42400002 6.05900002
2.49799991 0.85399997 6.02899981
4.21799994 1.48399997 6.20900011
3.78800011 1.91400003 6.28900003
2.75799990 1.87399995 6.20900011
2.54800010 1.02400005 6.25899982
3.77800012 1.76400006 6.15899992
4.26800013 1.52400005 6.05900002
3.94799995 1.42400002 6.11899996
4.19799995 1.74399996 6.31899977
4.29799986 1.704 6.26900005
4.32800007 1.17400002 6.09899998
3.07800007 1.38399994 6.03900003
3.53800011 1.38399994 6.02899981
3.65799999 1.824 6.08900023
3.08800006 1.98399997 6.26900005
3.40799999 1.77400005 6.25899982
3.58800006 1.42400002 6.09899998
3.22799993 1.89400005 6.12900019
3.63800001 1.38399994 6.02899981
4.29799986 1.13399994 6.06899977
2.79800010 1.51400006 6.27899981
4.09800005 1.29400003 6.20900011
4.27799988 1.19400001 6.079
3.54800010 1.35399997 6.02899981
3.89800000 1.78400004 6.09899998
2.56800008 1.59399998 6.22900009
4.23799992 1.574 6.14900017
2.55800009 1.17400002 6.28900003
4.21799994 1.84399998 6.15899992
3.36800003 1.77400005 6.34899998
2.57800007 2.08400011 6.34899998
2.97799993 1.83399999 6.11899996
2.50799990 1.454 6.03900003
3.54800010 1.50399995 6.15899992
2.91799998 2.08400011 6.34899998
3.75799990 1.56400001 6.36899996
3.50799990 1.46399999 6.18900013
2.87800002 1.86399996 6.18900013
3.94799995 1.84399998 6.13899994
3.12800002 1.98399997 6.26900005
3.48799992 1.50399995 6.34899998
3.53800011 1.454 6.15899992
3.54800010 1.52400005 6.1789999
3.96799994 1.85399997 6.14900017
3.61800003 1.33399999 6.09899998
2.96799994 1.85399997 6.16900015
2.56800008 1.27400005 6.23899984
3.48799992 1.77400005 6.22900009
4.25799990 1.69400001 6.10900021
3.53800011 1.77400005 6.23899984
3.02800012 1.83399999 6.13899994
2.50799990 1.04400003 6.04899979
4.17799997 1.74399996 6.24900007
4.26800013 1.67400002 6.19899988
2.72799993 1.99399996 6.26900005
3.67799997 1.76400006 6.38899994
3.46799994 1.42400002 6.09899998
3.89800000 1.35399997 6.02899981
3.48799992 1.954 6.19899988
3.01799989 2.07399988 6.37900019
4.27799988 1.01400006 6.18900013
3.81800008 1.36399996 6.02899981
4.10799980 1.76400006 6.24900007
4.28800011 1.74399996 6.21899986
2.77800012 2.0940001 6.23899984
2.85800004 1.50399995 6.25899982
2.56800008 1.22399998 6.329
2.95799994 1.79400003 6.06899977
2.53800011 2.04399991 6.21899986
3.52800012 1.43400002 6.14900017
3.14800000 1.99399996 6.30900002
4.22800016 1.64400005 6.22900009
4.20800018 1.61399996 6.26900005
4.04799986 1.574 6.34899998
2.72799993 1.80400002 6.05900002
2.54800010 0.92400002 6.10900021
2.54800010 0.92400002 6.05900002
2.58800006 1.77400005 6.079
2.72799993 1.83399999 6.13899994
4.26800013 1.10399997 6.30900002
4.21799994 1.48399997 6.18900013
2.97799993 1.79400003 6.05900002
2.72799993 1.44400001 6.08900023
3.70799994 1.29400003 6.19899988
4.30800009 1.64400005 6.26900005
3.25799990 1.43400002 6.11899996
3.88800001 1.53400004 6.29899979
3.52800012 1.76400006 6.18900013
2.52800012 2.02399993 6.36899996
4.09800005 1.48399997 6.18900013
2.82800007 1.88399994 6.20900011
4.21799994 1.67400002 6.28900003
3.80800009 1.83399999 6.10900021
3.59800005 1.33399999 6.08900023
2.55800009 1.09399998 6.09899998
3.43799996 1.81400001 6.06899977
2.97799993 2.07399988 6.329
3.01799989 1.86399996 6.19899988
2.90799999 1.92400002 6.22900009
2.50799990 2.06399989 6.38899994
2.75799990 1.92400002 6.22900009
3.84800005 1.76400006 6.20900011
4.28800011 1.88399994 6.12900019
2.56800008 1.18400002 6.11899996
4.27799988 1.63399994 6.22900009
3.43799996 1.77400005 6.27899981
2.52800012 1.94400001 6.33900023
3.49799991 1.324 6.09899998
3.73799992 1.41400003 6.03900003
4.10799980 1.48399997 6.1789999
3.58800006 1.80400002 6.05900002
3.48799992 1.324 6.12900019
2.66799998 1.46399999 6.14900017
3.92799997 1.29400003 6.1789999
3.79800010 1.41400003 6.04899979
4.26800013 1.29400003 6.1789999
3.21799994 1.33399999 6.079
3.99799991 1.51400006 6.23899984
3.88800001 1.48399997 6.18900013
4.27799988 1.22399998 6.15899992
4.20800018 1.62399995 6.33900023
2.75799990 1.78400004 6.34899998
2.52800012 1.64400005 6.05900002
2.57800007 1.29400003 6.08900023
3.48799992 1.94400001 6.16900015
3.02800012 1.60399997 6.37900019
4.23799992 1.60399997 6.24900007
3.53800011 1.56400001 6.36899996
3.68799996 1.77400005 6.18900013
2.50799990 0.84399998 6.02899981
3.38800001 1.76400006 6.25899982
3.88800001 1.77400005 6.33900023
4.27799988 1.074 6.22900009
3.34800005 1.80400002 6.05900002
3.46799994 1.43400002 6.1789999
2.55800009 1.08399999 6.12900019
