# .PCD v0.7 - Point Cloud Data file format
VERSION 0.7
FIELDS x y z
SIZE 4 4 4
TYPE F F F
COUNT 1 1 1
WIDTH 1479
HEIGHT 1
VIEWPOINT 0 0 0 1 0 0 0
POINTS 1479
DATA ascii
3.31100011 0.98400003 4.96999979
3.68700004 0.972 4.95900011
3.41400003 0.08 5.57499981
3.33800006 0.80500001 4.92399979
3.61999989 0.41 5.46099997
3.38199997 0.52399999 5.00299978
3.36700010 0.63800001 5.16900015
3.52399993 0.56400001 5.34299994
3.59400010 0.41999999 5.42199993
3.34299994 0.13600001 5.37599993
3.65599990 0.58499998 5.13600016
3.15400004 0.84399998 5.08300018
3.37100005 0.125 5.25299978
3.19300008 0.91500002 4.91800022
3.61500001 0.50400001 5.3670001
3.36899996 0.82099998 4.91900015
3.57999992 0.78799999 4.96299982
3.59400010 0.44100001 5.35699987
3.52900004 0.41600001 5.10400009
3.16199994 0.51999998 5.52199984
3.17100000 0.875 5.00099993
3.11899996 0.59899998 5.41800022
3.30399990 0.096 5.19899988
3.64800000 0.90600002 5.04799986
3.61700010 0.61000001 5.07800007
3.48600006 0.86299998 5.08799982
3.36999989 0.116 5.45100021
3.52600002 0.1 5.34399986
3.16499996 0.579 5.51399994
3.52600002 0.59600002 5.03299999
3.54600000 0.57099998 5.05000019
3.50099993 0.94300002 4.92399979
3.57599998 0.92799997 5.03299999
3.44700003 0.741 4.9369998
3.44799995 0.49700001 5.03200006
3.22300005 0.58600003 5.08199978
3.30299997 0.109 5.21400023
3.20900011 0.55500001 5.56099987
3.22099996 0.58099997 5.3499999
3.55999994 0.66399997 5.03000021
3.34899998 0.954 5.02099991
3.32200003 0.60000002 5.48699999
3.36700010 0.542 5.6079998
3.53600001 0.935 4.92399979
3.21600008 0.79699999 5.12099981
3.61400008 0.972 4.98799992
3.66400003 0.92799997 4.95800018
3.34100008 0.95700002 5.01999998
3.50000000 0.60000002 5.61600018
3.17600012 0.87199998 4.97300005
3.47099996 0.98100001 4.93900013
3.33500004 0.99800003 4.93300009
3.51500010 0.66399997 5.18100023
3.38199997 0.106 5.48799992
3.45499992 0.972 4.93300009
3.52500010 0.59500003 5.49599981
3.18499994 0.43200001 5.15500021
3.49600005 0.59100002 5.50400019
3.55900002 0.42500001 5.2249999
3.62700009 0.76800001 5.01499987
3.34599996 0.27200001 5.32700014
3.22099996 0.74699998 4.99800014
3.39599991 0.23800001 5.30299997
3.13499999 0.46700001 5.33099985
3.38000011 0.57700002 5.22200012
3.34100008 0.048 5.61600018
3.40899992 0.117 5.43599987
3.25999999 0.67299998 5.02199984
3.43300009 0.147 5.31599998
3.22199988 0.59600002 5.08199978
3.33699989 0.89999998 5.04699993
3.28999996 0.09 5.19199991
3.41499996 0.12800001 5.41599989
3.53500009 0.41499999 5.35099983
3.17199993 0.52899998 5.27600002
3.40799999 0.99199998 4.94899988
3.45099998 0.63700002 5.1789999
3.55500007 0.528 5.23999977
3.58100009 0.59299999 5.48099995
3.23300004 0.85699999 5.07499981
3.17700005 0.93800002 5.01999998
3.27699995 0.39399999 5.3130002
3.64000010 0.48500001 5.3499999
3.57699990 0.07 5.36800003
3.50699997 0.40099999 5.34100008
3.44300008 0.81999999 4.91800022
3.20600009 0.56 5.55700016
3.65000010 0.72799999 5.27199984
3.40700006 0.59200001 4.97300005
3.42899990 0.073 5.58199978
3.60800004 0.52899998 5.42000008
3.40300012 0.55900002 5.24100018
3.55100012 0.83999997 4.91099977
3.15599990 0.67299998 5.14499998
3.22499990 0.85500002 5.079
3.43099999 0.70300001 4.9460001
3.25500011 0.47400001 5.07499981
3.31299996 0.47 5.04699993
3.22700000 0.64600003 5.15700006
3.20000005 0.89899999 5.05700016
3.12899995 0.51700002 5.36199999
3.58800006 0.67799997 5.04400015
3.45900011 0.98299998 4.97200012
3.60100007 0.588 5.21099997
3.30500007 0.88599998 4.90500021
3.47000003 0.59399998 5.49900007
3.66100001 0.76300001 5.04500008
3.27699995 0.84899998 5.07399988
3.26500010 0.99000001 4.954
3.57500005 0.63300002 5.19899988
3.33899999 0.361 5.27899981
3.24000001 0.486 5.08199978
3.16499996 0.495 5.52899981
3.51399994 0.40400001 5.28700018
3.57599998 0.41999999 5.41699982
3.30500007 0.85500002 5.06899977
3.62800002 0.46000001 5.42299986
3.48900008 0.122 5.32700014
3.36400008 0.114 5.23400021
3.25600004 0.56 5.27199984
3.46600008 0.87099999 5.07999992
3.70000005 0.97100002 4.96999979
3.24399996 0.98000002 4.96999979
3.35400009 0.639 4.96799994
3.37800002 0.106 5.20900011
3.40000010 0.11 5.43100023
3.24699998 0.51200002 5.60500002
3.60100007 0.505 5.31400013
3.15400004 0.76700002 5.03900003
3.55800009 0.98299998 4.94999981
3.16000009 0.66399997 5.11000013
3.46900010 0.57999998 5.52699995
3.61100006 0.88499999 5.0710001
3.46900010 0.579 5.2329998
3.30100012 0.55400002 5.25699997
3.21499991 0.78399998 5.13000011
3.20900011 0.98100001 4.96199989
3.21600008 0.93900001 5.03700018
3.32200003 0.708 4.94700003
3.28699994 0.551 5.58799982
3.21700001 0.82300001 4.94099998
3.29999995 0.95300001 4.91300011
3.66100001 0.477 5.44899988
3.39599991 0.103 5.50099993
3.52800012 0.414 5.41499996
3.23499990 0.82099998 4.92799997
3.25900006 0.124 5.36499977
3.47799993 0.42199999 5.09200001
3.69300008 0.89899999 5.00199986
3.61100006 0.764 5.17399979
3.59699988 0.64499998 5.19099998
3.59899998 0.949 4.9380002
3.54900002 0.56 5.32999992
3.29900002 0.57499999 5.53800011
3.42400002 0.55000001 4.98999977
3.33500004 0.65399998 5.16300011
3.42700005 0.63200003 5.18100023
3.62199998 0.93800002 4.93499994
3.25600004 0.82999998 5.08500004
3.64000010 0.45300001 5.47300005
3.65799999 0.71899998 5.33900023
3.65000010 0.83899999 4.99300003
3.44199991 0.81 4.92000008
3.18799996 0.60699999 5.0999999
3.21600008 0.57300001 5.31400013
3.44700003 0.44100001 5.07299995
3.54699993 0.49200001 5.0710001
3.35400009 0.53100002 5.01499987
3.37599993 0.625 4.96600008
3.44499993 0.64200002 5.17399979
3.17199993 0.58399999 5.34200001
3.56100011 0.68000001 5.02099991
3.20099998 0.50800002 5.16499996
3.15000010 0.514 5.28999996
3.52200007 0.41600001 5.10300016
3.21399999 0.472 5.09800005
3.24099994 0.59100002 5.50600004
3.51900005 0.78500003 4.92500019
3.40000010 0.124 5.4000001
3.41100001 0.11 5.48099995
3.30200005 0.111 5.26399994
3.60100007 0.44499999 5.22300005
3.40100002 0.708 4.9460001
3.59899998 0.43099999 5.16800022
3.24200010 0.597 5.49300003
3.15300012 0.54400003 5.31599998
3.45799994 0.852 4.90999985
3.39100003 0.26199999 5.3039999
3.41100001 0.96799999 4.92600012
3.34800005 0.122 5.22200012
3.51399994 0.64399999 5.18200016
3.15499997 0.47600001 5.26499987
3.38800001 0.54100001 5.61100006
3.18300009 0.61799997 5.18200016
3.23900008 0.60600001 5.45200014
3.55399990 0.70599997 4.99700022
3.18799996 0.838 4.954
3.22300005 0.54900002 5.08599997
3.40199995 0.07 5.5250001
3.34299994 0.55800003 5.57299995
3.49600005 0.60699999 5.21199989
3.40799999 0.062 5.51599979
3.64499998 0.66500002 5.079
3.57800007 0.45199999 5.52699995
3.17700005 0.68599999 5.08400011
3.16400003 0.62099999 5.17000008
3.60299993 0.514 5.38500023
3.60999990 0.57700002 5.20200014
3.16199994 0.71499997 5.07399988
3.43799996 0.61400002 5.19799995
3.36500001 0.13699999 5.37699986
3.35400009 0.565 5.55900002
3.40300012 0.85100001 4.91099977
3.30999994 0.87699997 4.90700006
3.54299998 0.55599999 5.30900002
3.31900001 0.79500002 5.09600019
3.42799997 0.67000002 5.1880002
3.30999994 0.88999999 5.05299997
3.60200000 0.91100001 5.04699993
3.38100004 0.132 5.26100016
3.65499997 0.89200002 5.05499983
3.46099997 0.382 5.38399982
3.55699992 0.801 4.9369998
3.62500000 0.80800003 5.11899996
3.25699997 0.96899998 4.91499996
3.34999990 0.124 5.23099995
3.19300008 0.55800003 5.28299999
3.63000011 0.583 5.18599987
3.20199990 0.51300001 5.22200012
3.29699993 0.84100002 4.91599989
3.43499994 0.71100003 4.94399977
3.15799999 0.82200003 5.01800013
3.39400005 0.61000001 4.96899986
3.44899988 0.61000001 4.97700024
3.25500011 0.98500001 4.96199989
3.60999990 0.59399998 5.49100018
3.66899991 0.89200002 4.98199987
3.63400006 0.59200001 5.48899984
3.22600007 0.78100002 4.96600008
3.53099990 0.96399999 4.9380002
3.36700010 0.56800002 5.22800016
3.52300000 0.60000002 5.03000021
3.41799998 0.55199999 5.2670002
3.49399996 0.58499998 5.01800013
3.23200011 0.73400003 4.99800014
3.26699996 0.70999998 4.98799992
3.67199993 0.74199998 5.10900021
3.25000000 0.12 5.34100008
3.53900003 0.73199999 4.96899986
3.50600004 0.93199998 4.91900015
3.39199996 0.13600001 5.38800001
3.38100004 0.97000003 5.00400019
3.14899993 0.671 5.11600018
3.18899989 0.583 5.34899998
3.65700006 0.57800001 5.13199997
3.26900005 0.12 5.35300016
3.21000004 0.79000002 4.97300005
3.43700004 0.935 5.03800011
3.39899993 0.65600002 5.16599989
3.52399993 0.48300001 5.06099987
3.42199993 0.108 5.48699999
3.53699994 0.57099998 5.24800014
3.65899992 0.71100003 5.07499981
3.38800001 0.18099999 5.31599998
3.65899992 0.62300003 5.13800001
3.29500008 0.81 5.09100008
3.26900005 0.56199998 5.21899986
3.21000004 0.583 5.35400009
3.44300008 0.57099998 5.35900021
3.48200011 0.82099998 5.10400009
3.43799996 0.66100001 4.95599985
3.36299992 0.53500003 5.625
3.19899988 0.50999999 5.10300016
3.37299991 0.113 5.22700024
3.60500002 0.514 5.39099979
3.59699988 0.60299999 5.06899977
3.55200005 0.51700002 5.06699991
3.32999992 0.56599998 5.55600023
3.63700008 0.465 5.43100023
3.28699994 0.917 4.90899992
3.61199999 0.87 5.08500004
3.67300010 0.708 5.1329999
3.56699991 0.42899999 5.27199984
3.35200000 0.30700001 5.31500006
3.23600006 0.81199998 4.93400002
3.24600005 0.653 5.05000019
3.49300003 0.58099997 5.41300011
3.25699997 0.954 4.91300011
3.54600000 0.419 5.33699989
3.46700001 0.57800001 5.39400005
3.47900009 0.634 4.98600006
3.43899989 0.59799999 5.48999977
3.14499998 0.59200001 5.125
3.24399996 0.62099999 5.17299986
3.67600012 0.92400002 4.97200012
3.13499999 0.699 5.10900021
3.63400006 0.63599998 5.08099985
3.53099990 0.81099999 5.11999989
3.47799993 0.60500002 5.625
3.41400003 0.13500001 5.39099979
3.66100001 0.65700001 5.09000015
3.43000007 0.44100001 5.06799984
3.15599990 0.57499999 5.50600004
3.31200004 0.37400001 5.30499983
3.26300001 0.61500001 5.05700016
3.59899998 0.44400001 5.36999989
3.60200000 0.495 5.2420001
3.21499991 0.50400001 5.09399986
3.55200005 0.91500002 4.91599989
3.41499996 0.57300001 5.36199999
3.46300006 0.579 5.23199987
3.24200010 0.99599999 4.921
3.65799999 0.60000002 5.11499977
3.15300012 0.778 5.12799978
3.20600009 0.96600002 4.98899984
3.16000009 0.61500001 5.11399984
3.49200010 0.56699997 5.24599981
3.65799999 0.87599999 5.05800009
3.28600001 0.597 5.04699993
3.58299994 0.53299999 5.07999992
3.20000005 0.83099997 4.94999981
3.45300007 0.377 5.36100006
3.64800000 0.528 5.1420002
3.38400006 0.89700001 4.90500021
3.44899988 0.113 5.17199993
3.49499989 0.509 5.03800011
3.55900002 0.57599998 5.24399996
3.21900010 0.76300001 5.14300013
3.43000007 0.96200001 5.01300001
3.54699993 0.53899997 5.30499983
3.57900000 0.57999998 5.52699995
3.58100009 0.60100001 5.546
3.39599991 0.52899998 5.64900017
3.33100009 0.93099999 4.90999985
3.23600006 0.55500001 5.22100019
3.58599997 0.55699998 5.07499981
3.17100000 0.78899997 5.0079999
3.37599993 0.54500002 5.60099983
3.37400007 0.107 5.4829998
3.13700008 0.77600002 5.07700014
3.25600004 0.68199998 5.01900005
3.14499998 0.611 5.14300013
3.24799991 0.68599999 5.02199984
3.30500007 0.62400001 5.17199993
3.65499997 0.67400002 5.18200016
3.59500003 0.58499998 5.07299995
3.12500000 0.53899997 5.37699986
3.60999990 0.77600002 4.99599981
3.16899991 0.49700001 5.12099981
3.48099995 0.64600003 5.17600012
3.14499998 0.62400001 5.14799976
3.42400002 0.57300001 4.98199987
3.23000002 0.53500003 5.08300018
3.19600010 0.51099998 5.15999985
3.64499998 0.46799999 5.3039999
3.19199991 0.93000001 5.04400015
3.45700002 0.87300003 5.07700014
3.47099996 0.74000001 4.93599987
3.43899989 0.55299997 5.27600002
3.21099997 0.82999998 4.94099998
3.25799990 0.57300001 5.32600021
3.17700005 0.50300002 5.24100018
3.40799999 0.147 5.33699989
3.39100003 0.56199998 5.56599998
3.48000002 0.509 5.03100014
3.38499999 0.93099999 4.90899992
3.34500003 0.18799999 5.34200001
3.37800002 0.18000001 5.32200003
3.51600003 0.88 4.90199995
3.68400002 0.96600002 4.98799992
3.64100003 0.47600001 5.28399992
3.49699998 0.68199998 4.96799994
3.37400007 0.207 5.32399988
3.31800008 0.986 4.92500019
3.54099989 0.64300001 5.02899981
3.44799995 0.66799998 5.18599987
3.28699994 0.85299999 5.07200003
3.20499992 0.98500001 4.95300007
3.58400011 0.58099997 5.22399998
3.17100000 0.43700001 5.20200014
3.31599998 0.579 5.53000021
3.44600010 0.61900002 4.96899986
3.25799990 0.639 5.15899992
3.48099995 0.114 5.34600019
3.32900000 0.98100001 4.97800016
3.19000006 0.96600002 4.98500013
3.22099996 0.57200003 5.54500008
3.41599989 0.152 5.27799988
3.46099997 0.78399998 4.92600012
3.11500001 0.53299999 5.44000006
3.25900006 0.53399998 5.06699991
3.35200000 0.57300001 5.54199982
3.50900006 0.60699999 5.02099991
3.21099997 0.94300002 5.03100014
3.63199997 0.58099997 5.09399986
3.47199988 0.84299999 5.09299994
3.65199995 0.47099999 5.34000015
3.49699998 0.95899999 4.93100023
3.39899993 0.98000002 4.97800016
3.51699996 0.389 5.20200014
3.32200003 0.89300001 4.90500021
3.60299993 0.89200002 5.06500006
3.18400002 0.90700001 4.96899986
3.34599996 0.104 5.22700024
3.45799994 0.052 5.5619998
3.28999996 0.56 5.22399998
3.62800002 0.45899999 5.38600016
3.35500002 0.51499999 5.0170002
3.48699999 0.61699998 5.61899996
3.38899994 0.107 5.48600006
3.43600011 0.116 5.1880002
3.52399993 0.40900001 5.29699993
3.45099998 0.65899998 5.17199993
3.37800002 0.55599999 5.27699995
3.37100005 0.57300001 5.35300016
3.54900002 0.421 5.25099993
3.53500009 0.57700002 5.40500021
3.15700006 0.47999999 5.25699997
3.45400000 0.419 5.09000015
3.17499995 0.486 5.11800003
3.12400007 0.48800001 5.45300007
3.37299991 0.116 5.23199987
3.17600012 0.699 5.07399988
3.64199996 0.85500002 4.97700024
3.37500000 0.185 5.30800009
3.61199999 0.44 5.16300011
3.60599995 0.44800001 5.23199987
3.30900002 0.57700002 5.03499985
3.55800009 0.44299999 5.52699995
3.36299992 0.58399999 5.51900005
3.60200000 0.98699999 4.96299982
3.21399999 0.54299998 5.19700003
3.39100003 0.177 5.30800009
3.29500008 0.78399998 5.10400009
3.34200001 0.58700001 5.40100002
3.45199990 0.61699998 5.19700003
3.47000003 0.588 5.43599987
3.55800009 0.093 5.33699989
3.37100005 0.583 5.39099979
3.64899993 0.56800002 5.11800003
3.62500000 0.898 4.9369998
3.66100001 0.801 5.08500004
3.33599997 0.141 5.3579998
3.53299999 0.60399997 5.03499985
3.47700000 0.551 5.27600002
3.24699998 0.075 5.07999992
3.69700003 0.98500001 4.96700001
3.67000008 0.67699999 5.08900023
3.50500011 0.71600002 4.95200014
3.37299991 0.55599999 5.23899984
3.45900011 0.97799999 4.98400021
3.69400001 0.90399998 5.0
3.47600007 0.875 4.90399981
3.47700000 0.912 4.90600014
3.50099993 0.74699998 4.93400002
3.44899988 0.60299999 5.65700006
3.27999997 0.59600002 5.42199993
3.56299996 0.412 5.19399977
3.44199991 0.07 5.5999999
3.29399991 0.59399998 5.49800014
3.20900011 0.54799998 5.09399986
3.20400000 0.47999999 5.10200024
3.21600008 0.484 5.09499979
3.34200001 0.53399998 5.62699986
3.16799998 0.51599997 5.26599979
3.11899996 0.55800003 5.46999979
3.18000007 0.54000002 5.15399981
3.16199994 0.47499999 5.23999977
3.21600008 0.53500003 5.23000002
3.21799994 0.51099998 5.1880002
3.56599998 0.76800001 4.96600008
3.27999997 0.565 5.29699993
3.40100002 0.065 5.6170001
3.26099992 0.90799999 4.90799999
3.58599997 0.51899999 5.34200001
3.33400011 0.65700001 4.97200012
3.60100007 0.65499997 5.05800009
3.26300001 0.62099999 5.05700016
3.11400008 0.55599999 5.44500017
3.49699998 0.98199999 4.94299984
3.31999993 0.91600001 5.03999996
3.24000001 0.124 5.3579998
3.31200004 0.41800001 5.0630002
3.52900004 0.91399997 5.05000019
3.67100000 0.912 5.03100014
3.54299998 0.60000002 5.04099989
3.24200010 0.09 5.08599997
3.16599989 0.75 5.04300022
3.15400004 0.602 5.11899996
3.31399989 0.75199997 4.9369998
3.51999998 0.64700001 5.01000023
3.50099993 0.40200001 5.41800022
3.58200002 0.43599999 5.35099983
3.46000004 0.57800001 5.53200006
3.18499994 0.49000001 5.13700008
3.52900004 0.83999997 5.10699987
3.40000010 0.60000002 5.20599985
3.52800012 0.42399999 5.09800005
3.32200003 0.37 5.29099989
3.61800003 0.44800001 5.16900015
3.49300003 0.39500001 5.34700012
3.32299995 0.109 5.43400002
3.25399995 0.59299999 5.40600014
3.27800012 0.87 5.06500006
3.64100003 0.72799999 5.05200005
3.21199989 0.95700002 4.91400003
3.41899991 0.61199999 5.19799995
3.49600005 0.426 5.09200001
3.50999999 0.85699999 4.90799999
3.43400002 0.73299998 4.93900013
3.62500000 0.45699999 5.26000023
3.46700001 0.57599998 5.38500023
3.45099998 0.58499998 5.22599983
3.57399988 0.80500001 5.13500023
3.38199997 0.495 5.01200008
3.65400004 0.71200001 5.07200003
3.25500011 0.73100001 4.98099995
3.53600001 0.55599999 5.30700016
3.46000004 0.65200001 5.16699982
3.57999992 0.50599998 5.21899986
3.27999997 0.55199999 5.0539999
3.21300006 0.64999998 5.15600014
3.14000010 0.49700001 5.31899977
3.21700001 0.56699997 5.29300022
3.26099992 0.83600003 4.91800022
3.57299995 0.41299999 5.1789999
3.55999994 0.52899998 5.23699999
3.62599993 0.95499998 5.00299978
3.30599999 0.565 5.22200012
3.13499999 0.66100001 5.15299988
3.36299992 0.096 5.50899982
3.47700000 0.38 5.27899981
3.27399993 0.93900001 4.91099977
3.56800008 0.42899999 5.38700008
3.13100004 0.65799999 5.14699984
3.20900011 0.514 5.09700012
3.57299995 0.69999999 5.01599979
3.25399995 0.109 5.28700018
3.48200011 0.54299998 5.61499977
3.44600010 0.55199999 5.25199986
3.33299994 0.099 5.454
3.32399988 0.17200001 5.32399988
3.19799995 0.57499999 5.32000017
3.28299999 0.43599999 5.07000017
3.47799993 0.66500002 4.96400023
3.66899991 0.73699999 5.12799978
3.30200005 0.89499998 4.90600014
3.35100007 0.55000001 5.24800014
3.50399995 0.114 5.33199978
3.68600011 0.736 5.08699989
3.17000008 0.815 4.98799992
3.47300005 0.62800002 5.6420002
3.44000006 0.058 5.56400013
3.18300009 0.90899998 5.05600023
3.32699990 0.55800003 5.57399988
3.59400010 0.58600003 5.454
3.57100010 0.83600003 5.11899996
3.43000007 0.505 5.02400017
3.53699994 0.95700002 5.0079999
3.59800005 0.59100002 5.47599983
3.61700010 0.59299999 5.49100018
3.31999993 0.132 5.38399982
3.51900005 0.56800002 5.3579998
3.41899991 0.123 5.38399982
3.33200002 0.71399999 4.9460001
3.28900003 0.97799999 4.98099995
3.44600010 0.59299999 5.44999981
3.54200006 0.58200002 5.52299976
3.37199998 0.317 5.30499983
3.38299990 0.148 5.29099989
3.28399992 0.616 5.046
3.63400006 0.93699998 4.93599987
3.49099994 0.103 5.35900021
3.61800003 0.49700001 5.33500004
3.45900011 0.59799999 5.21500015
3.16499996 0.59399998 5.5
3.40700006 0.537 5.625
3.43300009 0.58200002 5.52400017
3.68899989 0.87 5.02899981
3.13499999 0.53399998 5.34299994
3.66799998 0.65499997 5.09800005
3.19799995 0.90499997 5.0539999
3.45199990 0.60399997 5.20800018
3.18700004 0.87900001 5.07499981
3.38800001 0.977 4.98799992
3.61199999 0.80000001 5.1500001
3.38499999 0.56900001 5.33699989
3.53600001 0.523 5.05700016
3.46700001 0.83600003 5.09499979
3.56399989 0.39899999 5.15500021
3.30200005 0.58999997 5.19999981
3.19899988 0.58399999 5.35599995
3.63899994 0.92000002 5.03599977
3.63400006 0.55599999 5.10099983
3.41000009 0.57599998 4.97700024
3.19099998 0.53899997 5.546
3.49699998 0.39899999 5.40999985
3.31999993 0.597 5.43499994
3.11199999 0.546 5.43100023
3.41100001 0.138 5.38600016
3.61800003 0.85600001 5.09800005
3.26900005 0.104 5.13999987
3.11700010 0.68800002 5.13100004
3.66700006 0.72399998 5.21799994
3.18000007 0.92799997 5.0
3.56100011 0.56199998 5.06099987
3.63899994 0.52700001 5.47599983
3.64299989 0.53500003 5.16200018
3.15700006 0.85699999 5.05299997
3.18799996 0.921 4.94899988
3.56200004 0.60000002 5.56099987
3.13100004 0.56 5.36100006
3.36899996 0.65700001 4.95800018
3.62400007 0.78299999 5.15100002
3.42300010 0.66500002 5.18100023
3.18099999 0.51499999 5.11199999
3.17700005 0.70899999 5.06599998
3.61800003 0.493 5.30200005
3.64400005 0.46799999 5.36899996
3.31299996 0.48199999 5.04400015
3.22799993 0.95899999 5.00400019
3.56999993 0.79400003 4.95200014
3.39400005 0.185 5.3119998
3.34599996 0.486 5.02899981
3.28299999 0.986 4.96500015
3.64599991 0.63599998 5.08699989
3.20400000 0.77999997 5.13600016
3.34800005 0.125 5.21700001
3.26099992 0.85299999 4.91400003
3.20400000 0.80900002 5.1170001
3.56999993 0.94599998 4.93300009
3.32699990 0.138 5.36600018
3.61199999 0.74199998 5.01900005
3.36999989 0.99199998 4.94999981
3.51600003 0.56999999 5.03399992
3.64000010 0.54000002 5.1170001
3.28600001 0.077 5.10300016
3.45900011 0.37900001 5.32999992
3.50099993 0.69499999 4.96299982
3.40499997 0.15700001 5.29400015
3.68199992 0.713 5.09200001
3.66000009 0.96700001 4.98899984
3.57999992 0.98799998 4.96000004
3.15000010 0.79699999 5.11199999
3.59100008 0.5 5.22599983
3.17300010 0.75800002 5.03100014
3.26900005 0.47400001 5.06699991
3.25000000 0.741 5.14799976
3.63599992 0.46200001 5.23500013
3.32500005 0.109 5.18300009
3.33699989 0.57700002 5.36000013
3.22700000 0.82999998 4.92700005
3.46099997 0.13699999 5.31699991
3.29200006 0.118 5.41699982
3.66700006 0.89999998 4.97700024
3.27500010 0.456 5.06699991
3.42799997 0.73699999 4.9380002
3.20799994 0.87199998 5.07299995
3.33100009 0.80900002 4.92299986
3.32900000 0.121 5.24100018
3.55999994 0.62300003 5.20599985
3.54200006 0.55500001 5.30299997
3.40799999 0.119 5.44999981
3.54699993 0.94400001 5.01999998
3.51600003 0.433 5.08900023
3.50200009 0.109 5.34200001
3.17700005 0.53399998 5.2750001
3.52800012 0.43000001 5.09399986
3.26399994 0.55900002 5.22200012
3.53999996 0.41299999 5.42999983
3.41599989 0.116 5.20200014
3.17199993 0.90499997 5.0250001
3.20799994 0.53899997 5.5630002
3.52399993 0.58700001 5.51300001
3.24099994 0.574 5.07299995
3.19300008 0.82599998 5.10900021
3.22900009 0.56800002 5.08099985
3.25799990 0.60500002 5.06099987
3.23200011 0.65200001 5.0630002
3.35800004 0.98799998 4.92999983
3.37400007 0.084 5.4749999
3.66499996 0.80599999 5.0250001
3.61899996 0.76099998 5.01300001
3.18899989 0.56900001 5.17799997
3.17499995 0.89399999 5.0
3.31800008 0.56199998 5.56500006
3.56599998 0.88999999 4.90500021
3.14599991 0.80900002 5.09800005
3.38499999 0.796 4.92500019
3.62100005 0.93199998 5.0250001
3.42499995 0.061 5.55100012
3.42899990 0.653 5.16300011
3.26200008 0.56699997 5.21400023
3.40799999 0.53899997 5.61999989
3.50799990 0.59500003 5.02400017
3.63400006 0.472 5.22200012
3.58599997 0.50099999 5.21299982
3.33299994 0.051 5.65600014
3.32299995 0.108 5.45599985
3.31500006 0.82200003 5.08400011
3.20300007 0.56900001 5.1960001
3.63199997 0.50099999 5.42600012
3.31200004 0.94300002 5.02899981
3.40400004 0.074 5.53900003
3.18400002 0.537 5.26999998
3.56399989 0.70300001 5.00699997
3.62500000 0.458 5.4289999
3.14400005 0.79799998 5.10300016
3.37700009 0.59799999 5.48999977
3.37199998 0.19400001 5.32499981
3.36100006 0.22400001 5.32800007
3.48499990 0.56599998 5.55600023
3.36899996 0.449 5.03800011
3.61400008 0.55699998 5.43300009
3.49099994 0.84399998 4.91099977
3.60500002 0.68800002 5.05000019
3.33599997 0.551 5.02299976
3.39800000 0.133 5.25
3.44000006 0.54699999 5.60099983
3.30699992 0.972 4.91699982
3.18799996 0.442 5.11899996
3.20000005 0.68900001 5.06099987
3.64100003 0.53899997 5.48199987
3.25900006 0.46700001 5.07299995
3.24300003 0.58700001 5.19700003
3.17899990 0.64700001 5.10099983
3.65700006 0.81099999 5.08500004
3.24399996 0.82499999 5.09299994
3.27900004 0.491 5.05999994
3.62800002 0.47299999 5.20800018
3.27300000 0.09 5.16300011
3.28800011 0.60299999 5.454
3.48900008 0.829 4.91499996
3.25500011 0.421 5.08599997
3.15199995 0.47600001 5.27299976
3.18499994 0.662 5.1500001
3.53900003 0.65600002 5.17399979
3.62500000 0.479 5.23600006
3.69000006 0.93300003 4.98000002
3.39100003 0.53100002 5.6420002
3.21300006 0.84100002 4.93100023
3.32999992 0.78500003 4.9289999
3.49200010 0.54799998 5.26599979
3.45799994 0.65899998 5.17199993
3.64899993 0.97100002 4.98600006
3.43300009 0.60399997 5.66800022
3.33200002 0.90600002 4.90700006
3.53600001 0.74800003 4.95599985
3.26999998 0.76499999 5.125
3.42000008 0.56699997 5.33799982
3.35899997 0.13 5.39900017
3.38599992 0.146 5.35099983
3.35500002 0.13600001 5.25699997
3.23200011 0.79400003 5.11800003
3.30299997 0.66900003 4.98899984
3.30200005 0.53200001 5.62799978
3.16499996 0.579 5.11499977
3.12100005 0.57200003 5.39799976
3.15400004 0.52700001 5.51200008
3.13899994 0.72000003 5.15199995
3.29099989 0.60600001 5.46099997
3.60899997 0.81099999 4.97100019
3.29600000 0.94800001 4.91200018
3.38299990 0.122 5.43200016
3.55500007 0.42500001 5.38999987
3.17700005 0.61799997 5.18300009
3.17799997 0.84200001 5.10300016
3.58200002 0.58099997 5.42799997
3.19099998 0.463 5.1329999
3.50399995 0.73299998 4.93900013
3.18300009 0.50199997 5.11199999
3.40100002 0.616 5.19199991
3.41599989 0.54799998 5.59600019
3.19600010 0.47600001 5.10699987
3.56900001 0.58399999 5.23699999
3.29200006 0.87900001 4.90700006
3.36899996 0.20999999 5.32000017
3.64000010 0.85900003 4.97200012
3.62899995 0.921 4.92799997
3.17899990 0.94 5.01100016
3.18899989 0.48100001 5.11100006
3.32100010 0.53200001 5.63100004
3.21900010 0.551 5.20699978
3.22300005 1.0 4.9289999
3.35899997 0.85100001 4.91200018
3.68000007 0.722 5.1079998
3.22700000 0.115 5.30900002
3.35100007 0.053 5.6329999
3.46199989 0.67400002 4.95200014
3.25799990 0.88200003 4.90700006
3.32999992 0.79400003 5.09499979
3.41100001 0.122 5.42600012
3.54699993 0.62599999 5.03599977
3.52300000 0.86799997 5.09499979
3.35599995 0.16599999 5.29400015
3.61199999 0.41999999 5.42799997
3.32299995 0.34400001 5.31899977
3.16000009 0.60100001 5.41800022
3.48600006 0.551 5.02299976
3.42000008 0.759 4.93300009
3.61400008 0.44299999 5.12699986
3.26300001 0.54299998 5.60599995
3.55399990 0.41299999 5.21099997
3.60100007 0.514 5.37200022
3.35899997 0.117 5.44399977
3.57699990 0.73500001 4.99700022
3.20600009 0.57999998 5.09200001
3.65499997 0.84200001 4.99599981
3.12400007 0.61000001 5.43200016
3.57999992 0.90399998 4.91400003
3.62199998 0.42199999 5.48000002
3.45400000 0.634 4.96600008
3.61100006 0.44999999 5.21500015
3.56200004 0.42699999 5.23600006
3.25699997 0.903 5.05100012
3.24799991 0.755 5.13899994
3.22199988 0.82300001 4.9369998
3.61500001 0.49900001 5.329
3.57399988 0.40799999 5.45200014
3.21600008 0.96399999 4.91499996
3.59699988 0.82599998 4.95200014
3.27200007 0.72500002 4.97100019
3.42199993 0.077 5.58400011
3.33200002 0.77999997 5.10200024
3.39700007 0.244 5.30200005
3.66599989 0.69300002 5.1960001
3.50300002 0.47099999 5.05999994
3.64400005 0.48699999 5.37599993
3.63000011 0.86199999 4.96099997
3.27200007 0.55900002 5.27199984
3.55599999 0.80800003 4.93100023
3.36899996 0.54000002 5.00600004
3.31900001 0.43900001 5.0539999
3.30299997 0.048 5.69299984
3.40899992 0.63300002 5.17799997
3.19799995 0.86699998 4.92299986
3.65499997 0.96899998 4.98600006
3.61800003 0.76099998 5.1789999
3.23099995 0.97399998 4.91599989
3.19199991 0.68300003 5.07299995
3.15499997 0.86400002 5.06500006
3.52800012 0.56 5.32299995
3.60500002 0.949 5.01000023
3.62400007 0.458 5.39099979
3.56699991 0.61199999 5.21600008
3.41199994 0.58600003 5.51499987
3.44300008 0.87800002 5.0710001
3.62599993 0.454 5.14599991
3.63400006 0.87599999 4.95699978
3.51600003 0.68699998 4.97900009
3.30500007 0.16599999 5.36499977
3.20600009 0.47799999 5.17799997
3.51699996 0.40599999 5.28100014
3.29999995 0.124 5.40799999
3.19400001 0.44299999 5.15299988
3.38199997 0.16599999 5.32000017
3.47700000 0.89700001 5.0710001
3.30699992 0.105 5.24100018
3.44300008 0.13699999 5.22700024
3.38700008 0.60500002 5.19999981
3.22799993 0.68199998 5.04300022
3.58699989 0.83899999 5.11800003
3.67600012 0.71499997 5.11399984
3.41000009 0.87400001 4.90600014
3.57999992 0.073 5.36100006
3.14899993 0.60299999 5.41900015
3.62199998 0.76599997 5.01200008
3.32100010 0.106 5.21000004
3.51999998 0.389 5.21199989
3.60999990 0.81 5.14099979
3.48399997 0.59100002 5.44899988
3.48499990 0.60100001 5.63000011
3.61999989 0.41299999 5.45300007
3.55200005 0.58099997 5.05100012
3.69300008 0.829 5.03900003
3.66499996 0.61699998 5.11800003
3.36299992 0.122 5.42799997
3.22199988 0.53200001 5.21999979
3.14299989 0.78399998 5.05200005
3.63000011 0.46900001 5.18200016
3.26799989 0.082 5.10300016
3.47099996 0.384 5.32600021
3.61899996 0.47600001 5.18400002
3.33800006 0.123 5.26900005
3.13199997 0.514 5.34899998
3.36899996 0.56999999 5.54899979
3.26399994 0.80900002 4.92500019
3.49600005 0.65499997 4.98500013
3.64000010 0.958 4.9460001
3.57999992 0.52399999 5.35099983
3.51900005 0.60699999 5.02600002
3.49799991 0.62800002 5.19399977
3.59899998 0.63599998 5.19899988
3.63899994 0.74199998 5.29099989
3.26500010 0.97100002 4.98899984
3.31699991 0.60100001 5.48400021
3.60899997 0.58600003 5.51399994
3.65300012 0.92299998 5.03100014
3.26300001 0.112 5.30800009
3.41700006 0.059 5.53000021
3.47700000 0.977 4.9380002
3.61800003 0.5 5.35300016
3.58299994 0.449 5.52099991
3.20900011 0.74199998 5.15999985
3.22900009 0.75199997 4.98699999
3.24300003 0.122 5.3499999
3.19499993 0.412 5.11399984
3.68700004 0.95099998 4.99900007
3.66499996 0.66799998 5.1329999
3.50000000 0.39199999 5.26300001
3.36400008 0.34599999 5.28599977
3.34200001 0.11 5.46400023
3.23499990 0.574 5.54099989
3.57900000 0.44 5.51100016
3.61700010 0.48199999 5.21700001
3.23399997 0.55500001 5.58099985
3.32299995 0.56 5.22800016
3.54900002 0.58999997 5.50600004
3.18199992 0.59299999 5.50199986
3.35299993 0.597 5.44399977
3.28299999 0.095 5.20800018
3.63499999 0.47799999 5.14900017
3.59800005 0.58200002 5.21199989
3.35100007 0.59600002 5.49399996
3.29299998 0.59299999 5.41599989
3.48300004 0.61000001 5.20699978
3.54999995 0.61000001 5.04199982
3.29399991 0.76899999 4.93300009
3.65599990 0.83499998 5.07600021
3.66000009 0.78799999 5.09100008
3.33500004 0.96499997 5.01300001
3.22799993 0.61199999 5.18100023
3.53399992 0.773 4.9369998
3.46300006 0.47499999 5.05100012
3.59999990 0.92799997 5.03100014
3.33299994 0.59799999 5.44399977
3.39800000 0.55800003 5.29300022
3.25099993 0.49700001 5.07499981
3.26699996 0.58399999 5.51900005
3.62700009 0.77399999 5.15999985
3.43099999 0.493 5.03299999
3.44000006 0.53399998 5.00400019
3.40799999 0.43599999 5.0619998
3.32900000 0.30899999 5.32499981
3.41400003 0.12800001 5.22800016
3.34899998 0.579 5.01300001
3.43199992 0.12 5.37799978
3.13700008 0.47600001 5.50600004
3.59200001 0.405 5.12799978
3.52999997 0.91799998 4.91499996
3.56800008 0.40000001 5.14900017
3.15300012 0.81300002 5.03299999
3.45000005 0.98799998 4.96000004
3.40199995 0.114 5.421
3.40799999 0.93099999 5.04099989
3.40000010 0.05 5.55999994
3.25999999 0.75400001 4.95900011
3.58800006 0.58399999 5.44399977
3.31399989 0.048 5.67399979
3.64100003 0.50700003 5.16099977
3.35400009 0.59799999 5.20100021
3.64700007 0.77899998 5.02299976
3.69199991 0.98299998 4.96999979
3.35999990 0.54100001 5.01100016
3.12899995 0.759 5.0999999
3.46900010 0.99199998 4.94500017
3.35299993 0.20900001 5.33699989
3.35999990 0.20900001 5.31699991
3.51500010 0.95899999 4.93300009
3.36500001 0.62900001 5.17600012
3.48099995 0.389 5.32200003
3.38899994 0.057 5.59600019
3.16599989 0.523 5.11999989
3.63800001 0.47099999 5.15899992
3.41700006 0.062 5.5170002
3.70099998 0.93800002 4.98999977
3.35999990 0.139 5.37200022
3.12400007 0.72899997 5.12900019
3.63100004 0.486 5.171
3.69400001 0.889 5.0079999
3.54600000 0.58899999 5.45599985
3.56900001 0.56800002 5.23400021
3.65300012 0.602 5.10099983
3.43499994 0.653 5.16300011
3.58599997 0.84600002 5.11000013
3.34200001 0.32300001 5.31599998
3.25399995 0.57099998 5.54699993
3.29200006 0.088 5.18300009
3.42000008 0.98500001 4.93599987
3.33599997 0.551 5.58900023
3.46700001 0.55699998 5.57700014
3.37299991 0.122 5.43200016
3.63000011 0.97799999 4.98000002
3.25900006 0.60799998 5.18100023
3.59899998 0.59799999 5.21299982
3.63100004 0.493 5.36000013
3.22399998 0.56999999 5.30499983
3.36500001 0.052 5.60099983
3.21000004 0.49700001 5.57200003
3.31999993 0.153 5.3579998
3.17300010 0.52600002 5.11499977
3.27900004 0.082 5.12300014
3.63400006 0.51200002 5.46600008
3.39000010 0.062 5.62099981
3.16499996 0.46700001 5.22700024
3.37700009 0.142 5.26200008
3.47900009 0.83999997 4.91300011
3.59500003 0.42199999 5.41400003
3.57399988 0.92000002 4.921
3.39000010 0.289 5.30200005
3.36400008 0.13600001 5.28000021
3.24600005 0.66399997 5.04099989
3.25099993 0.96700001 4.99499989
3.34899998 0.15099999 5.28499985
3.46900010 0.54799998 5.01499987
3.20300007 0.583 5.52099991
3.23499990 0.76599997 4.97100019
3.62599993 0.713 5.05000019
3.58500004 0.41499999 5.43499994
3.37299991 0.33899999 5.29799986
3.12199998 0.50300002 5.454
3.43199992 0.102 5.41900015
3.60500002 0.66100001 5.17799997
3.62400007 0.48699999 5.17700005
3.39199996 0.60000002 4.97100019
3.41599989 0.069 5.61999989
3.27099991 0.73799998 4.96199989
3.61599994 0.48300001 5.11100006
3.42799997 0.537 5.625
3.16599989 0.49000001 5.53100014
3.39800000 0.85900003 4.90999985
3.28500009 0.921 5.04099989
3.65799999 0.722 5.29899979
3.35999990 0.55599999 5.27400017
3.67400002 0.70700002 5.17700005
3.17300010 0.79900002 5.1329999
3.34899998 0.96799999 4.92000008
3.48200011 0.126 5.17700005
3.28200006 0.081 5.16200018
3.48699999 0.55699998 5.25400019
3.63800001 0.81999999 4.99100018
3.48300004 0.58499998 5.01300001
3.21700001 0.66000003 5.14799976
3.30200005 0.54799998 5.59600019
3.27800012 0.77200001 5.11800003
3.57900000 0.85399997 5.10300016
3.19600010 0.60500002 5.44299984
3.46900010 0.65499997 4.96400023
3.59800005 0.78600001 4.97900009
3.60500002 0.447 5.29300022
3.35500002 0.99299997 4.94700003
3.28600001 0.94999999 4.91300011
3.22600007 0.41499999 5.09899998
3.22900009 0.57999998 5.34700012
3.56599998 0.81 5.12900019
3.35299993 0.16500001 5.33699989
3.58200002 0.57499999 5.40100002
3.18000007 0.889 5.0710001
3.29699993 0.57999998 5.52699995
3.33500004 0.12899999 5.20699978
3.61400008 0.493 5.28399992
3.32500005 0.98799998 4.92700005
3.64700007 0.46900001 5.37400007
3.42600012 0.139 5.24399996
3.50799990 0.671 5.19099998
3.27200007 0.60699999 5.18200016
3.33299994 0.54100001 5.61000013
3.56299996 0.461 5.08799982
3.35500002 0.62900001 4.97599983
3.63299990 0.53500003 5.46700001
3.30299997 0.60900003 5.18499994
3.62400007 0.98299998 4.95699978
3.65499997 0.92400002 4.95200014
3.23600006 0.94300002 5.03399992
3.29399991 0.505 5.05000019
3.63199997 0.90799999 4.93900013
3.40400004 0.96899998 4.92600012
3.16100001 0.54500002 5.51599979
3.63800001 0.49000001 5.37200022
3.69300008 0.954 4.97200012
3.48499990 0.51700002 5.03100014
3.38899994 0.32100001 5.296
3.43899989 0.60900003 5.6500001
3.35800004 0.092 5.48899984
3.14400005 0.54500002 5.32700014
3.41300011 0.146 5.33400011
3.45199990 0.72600001 4.94000006
3.50399995 0.92799997 5.03900003
3.12400007 0.47799999 5.37300014
3.50600004 0.95999998 5.0079999
3.57800007 0.52399999 5.33900023
3.41199994 0.64399999 4.96000004
3.32200003 0.47600001 5.04199982
3.36899996 0.125 5.421
3.15199995 0.81099999 5.10400009
3.40199995 0.59899998 4.97100019
3.53699994 0.98199999 4.97599983
3.47900009 0.56800002 5.35200024
3.38899994 0.155 5.32200003
3.52300000 0.639 5.1869998
3.31500006 0.126 5.40399981
3.23699999 0.78600001 4.95300007
3.59599996 0.44299999 5.23500013
3.41899991 0.523 5.66599989
3.50900006 0.48100001 5.05299997
3.12700009 0.50700003 5.36600018
3.61500001 0.75599998 5.01300001
3.31100011 0.65899998 4.98999977
3.23200011 0.59600002 5.41400003
3.49799991 0.40000001 5.45699978
3.19099998 0.97500002 4.94999981
3.25699997 0.58499998 5.06400013
3.22900009 0.81099999 4.94000006
3.32299995 0.60299999 5.46000004
3.56299996 0.41499999 5.19899988
3.32800007 0.63200003 5.16800022
3.50099993 0.105 5.34899998
3.12599993 0.54699999 5.37699986
3.24799991 0.58399999 5.52099991
3.14199996 0.75 5.0630002
3.57399988 0.84799999 4.91900015
3.68700004 0.97799999 4.9749999
3.35700011 0.58499998 5.21199989
3.26900005 0.98199999 4.97100019
3.51399994 0.61500001 5.02199984
3.35299993 0.74199998 4.9380002
3.64899993 0.63800001 5.17199993
3.26200008 0.66299999 5.02799988
3.59999990 0.82999998 5.125
3.47499990 0.389 5.40199995
3.46199989 0.67000002 5.18900013
3.55399990 0.98400003 4.97100019
3.43300009 0.465 5.05299997
3.20199990 0.57499999 5.19700003
3.48600006 0.103 5.36399984
3.36999989 0.48100001 5.01999998
3.20499992 0.53299999 5.56099987
3.28699994 0.972 4.99100018
3.23200011 0.087 5.07200003
3.33999991 0.58399999 5.51900005
3.45300007 0.57200003 5.23600006
3.40100002 0.52999997 5.64499998
3.58599997 0.90700001 5.05200005
3.68899989 0.93300003 5.00400019
3.62100005 0.50700003 5.41900015
3.45799994 0.56800002 5.24100018
3.24499989 0.58099997 5.20100021
3.50799990 0.583 5.42299986
3.58100009 0.42199999 5.48799992
3.48499990 0.63499999 5.18599987
3.66899991 0.685 5.12300014
3.39400005 0.97299999 4.99800014
3.35400009 0.14 5.28100014
3.62500000 0.57999998 5.454
3.30500007 0.347 5.32600021
3.45799994 0.61900002 5.63700008
3.50500011 0.38699999 5.21899986
3.11400008 0.48199999 5.40700006
3.27200007 0.109 5.29400015
3.62500000 0.45699999 5.17399979
3.33400011 0.986 4.96500015
3.33999991 0.148 5.34499979
3.50099993 0.81099999 4.91900015
3.54299998 0.537 5.26999998
3.58599997 0.58600003 5.22300005
3.57599998 0.77899998 4.96600008
3.23600006 0.588 5.38100004
3.64100003 0.51099998 5.13800001
3.57500005 0.52899998 5.22399998
3.21300006 0.74599999 5.15600014
3.61999989 0.68800002 5.05999994
3.46799994 0.79100001 4.92399979
3.22700000 0.121 5.33699989
3.61800003 0.59200001 5.08300018
3.20400000 0.94999999 4.91300011
3.38299990 0.59899998 5.45900011
3.68799996 0.91500002 4.98899984
3.50200009 0.83899999 4.91200018
3.20400000 0.60699999 5.44700003
3.67899990 0.76800001 5.05800009
3.14599991 0.75700003 5.0539999
3.56900001 0.92799997 5.03399992
3.68199992 0.81599998 5.05700016
3.40300012 0.12 5.44299984
3.30900002 0.61699998 5.0250001
3.50500011 0.90600002 5.05999994
3.24699998 0.91399997 4.90899992
3.65700006 0.71899998 5.34899998
3.64400005 0.736 5.20699978
3.13400006 0.76999998 5.08300018
3.44400001 0.64899999 4.95900011
3.36100006 0.56800002 5.33099985
3.62700009 0.48199999 5.26499987
3.54699993 0.51999998 5.06400013
3.51600003 0.405 5.2670002
3.36999989 0.59200001 5.42600012
3.30200005 0.602 5.45300007
3.15499997 0.49599999 5.26599979
3.62599993 0.458 5.30499983
3.55599999 0.87199998 5.08799982
3.59899998 0.49900001 5.2579999
3.63899994 0.94700003 4.94099998
3.11999989 0.551 5.39900017
3.57200003 0.53299999 5.07399988
3.22399998 0.72399998 5.01399994
3.63499999 0.80500001 4.99599981
3.18000007 0.94599998 5.00299978
3.22900009 0.53200001 5.58400011
3.29600000 0.154 5.36499977
3.34100008 0.57599998 5.53499985
3.59200001 0.85699999 4.92799997
3.58899999 0.80299997 4.96099997
3.50200009 0.55900002 5.25400019
3.23099995 0.47099999 5.08799982
3.15400004 0.48199999 5.26900005
3.30800009 0.113 5.21299982
3.58999991 0.88 4.91300011
3.27999997 0.096 5.12799978
3.36100006 0.057 5.64400005
3.66300011 0.85699999 4.99499989
3.45600009 0.69999999 4.9460001
3.34200001 0.56800002 5.55200005
3.50900006 0.671 4.98500013
3.63400006 0.46200001 5.44999981
3.62299991 0.87099999 5.08300018
3.18700004 0.81800002 4.97100019
3.17000008 0.89099997 5.01800013
3.44199991 0.62800002 5.18599987
3.56200004 0.94199997 5.01999998
3.12199998 0.58399999 5.39799976
3.59100008 0.97299999 4.98899984
3.35599995 0.26499999 5.32399988
3.24099994 0.56400001 5.28599977
3.50099993 0.419 5.09800005
3.38700008 0.59899998 5.48799992
3.29900002 0.58999997 5.40299988
3.41599989 0.117 5.44700003
3.27699995 0.56400001 5.0539999
3.26099992 0.58200002 5.20100021
3.18099999 0.60399997 5.43400002
3.18199992 0.44 5.16499996
3.37500000 0.102 5.5
3.62500000 0.57800001 5.18900013
3.51900005 0.40900001 5.43400002
3.41799998 0.093 5.454
3.21300006 0.99199998 4.91900015
3.60899997 0.62900001 5.06899977
3.60100007 0.84500003 5.11000013
3.52399993 0.94300002 5.02299976
3.11899996 0.58700001 5.40899992
3.65899992 0.82800001 5.00699997
3.46000004 0.67900002 5.20200014
3.60100007 0.76700002 4.99399996
3.61400008 0.55000001 5.19399977
3.18799996 0.94800001 4.96000004
3.29200006 0.75599998 4.9369998
3.13899994 0.77600002 5.0630002
3.26600003 0.755 5.1329999
3.14199996 0.44499999 5.3039999
3.47700000 0.82300001 5.10200024
3.39700007 0.73100001 4.94000006
3.41400003 0.122 5.21500015
3.25600004 0.49399999 5.07299995
3.64199996 0.51200002 5.48199987
3.57200003 0.43099999 5.29799986
3.28299999 0.57999998 5.52699995
3.18600011 0.57800001 5.53200006
3.65300012 0.87 4.97800016
3.64800000 0.48699999 5.39699984
3.26099992 0.602 5.44500017
3.27699995 0.58999997 5.5079999
3.68499994 0.73799998 5.08099985
3.54299998 0.44800001 5.08199978
3.54699993 0.87699997 4.90199995
3.66100001 0.60100001 5.125
3.20300007 0.119 5.31500006
3.64000010 0.55199999 5.17299986
3.38400006 0.602 5.46999979
3.14899993 0.78399998 5.03000021
3.16700006 0.49700001 5.24599981
3.46900010 0.92799997 5.04199982
3.36500001 0.085 5.48400021
3.21399999 0.95099998 5.0170002
3.66300011 0.64700001 5.09399986
3.55599999 0.44299999 5.51900005
3.13700008 0.505 5.5
3.19099998 0.65200001 5.09399986
3.59500003 0.42500001 5.16300011
3.30100012 0.126 5.29699993
3.61700010 0.433 5.1420002
3.39000010 0.67199999 4.954
3.50600004 0.73000002 4.94399977
3.54900002 0.43399999 5.50899982
3.24600005 0.72399998 4.99399996
3.28399992 0.087 5.16099977
3.65300012 0.47299999 5.43599987
3.54099989 0.56199998 5.57200003
3.65100002 0.472 5.44700003
3.54099989 0.71899998 4.97800016
3.51900005 0.57999998 5.41300011
3.20400000 0.59200001 5.50299978
3.68700004 0.954 4.96600008
3.29699993 0.088 5.15999985
3.32999992 0.61199999 5.01000023
3.31900001 0.99900001 4.93100023
3.66599989 0.69400001 5.18599987
3.29399991 0.72100002 4.95599985
3.57599998 0.96899998 4.94500017
3.58200002 0.926 4.92500019
3.32599998 0.56900001 5.55000019
3.51300001 0.90600002 4.90700006
3.40899992 0.77100003 4.92999983
3.31399989 0.57999998 5.36499977
3.45400000 0.60900003 5.20499992
3.58400011 0.95099998 5.01000023
3.54299998 0.56699997 5.36199999
3.63000011 0.81699997 5.11000013
3.29299998 0.139 5.34299994
3.68199992 0.72600001 5.09499979
3.14800000 0.52600002 5.30100012
3.19700003 0.97299999 4.91699982
3.49499989 0.597 5.01599979
3.16100001 0.5 5.25699997
3.57999992 0.435 5.21999979
3.61700010 0.78299999 5.16300011
3.14299989 0.449 5.51599979
3.30200005 0.091 5.15600014
3.22499990 0.542 5.21000004
3.21600008 0.81300002 4.94999981
3.66000009 0.75099999 5.12200022
3.11400008 0.68300003 5.13600016
3.27099991 0.685 5.00400019
3.67499995 0.829 5.05900002
3.46799994 0.377 5.28800011
3.18000007 0.55900002 5.30000019
3.43300009 0.91500002 4.90700006
3.56900001 0.889 5.0710001
3.21300006 0.52700001 5.2249999
3.21600008 0.59600002 5.49599981
3.64700007 0.56999999 5.11199999
3.37400007 0.56999999 5.34000015
3.65000010 0.47 5.35699987
3.38499999 0.58200002 4.98600006
3.60599995 0.58099997 5.4369998
3.60800004 0.54900002 5.08900023
3.17100000 0.53100002 5.52899981
3.20900011 0.90799999 5.05200005
3.59800005 0.57999998 5.52899981
3.14400005 0.73100001 5.15100002
3.47600007 0.51700002 5.02600002
3.63400006 0.653 5.18900013
3.63000011 0.523 5.46099997
3.33200002 0.95899999 5.01999998
3.23300004 0.917 4.90899992
3.48099995 0.98799998 4.96000004
3.53900003 0.40599999 5.22200012
3.31299996 0.565 5.55900002
3.37400007 0.41999999 5.05900002
3.28800011 0.81199998 5.09000015
3.50799990 0.38600001 5.23699999
3.41700006 0.57499999 5.36999989
3.11899996 0.52499998 5.39699984
3.42899990 0.065 5.56899977
3.32800007 0.37 5.26300001
3.45799994 0.63599998 5.18100023
3.29900002 0.46200001 5.05499983
3.64299989 0.50199997 5.15500021
3.29500008 0.85500002 4.91300011
3.59500003 0.59399998 5.21700001
3.64700007 0.62800002 5.17500019
3.13599992 0.61000001 5.13199997
3.14199996 0.815 5.08699989
3.63700008 0.74900001 5.03399992
3.50900006 0.97600001 4.99100018
3.21099997 0.528 5.56699991
3.34599996 0.58399999 5.39099979
3.48699999 0.588 5.44099998
3.32800007 0.56 5.02600002
3.48600006 0.551 5.25899982
3.31399989 0.75800002 4.93599987
3.17199993 0.88300002 5.00500011
3.14599991 0.60900003 5.44199991
3.60899997 0.42300001 5.41599989
3.50000000 0.80199999 4.921
3.45400000 0.54500002 5.6079998
3.48300004 0.58600003 5.43100023
3.19400001 0.58700001 5.3670001
3.46000004 0.58499998 5.22599983
3.57900000 0.75599998 4.98400021
3.58999991 0.65700001 5.05200005
3.16400003 0.60500002 5.43499994
3.64400005 0.46799999 5.43900013
3.17000008 0.58200002 5.51800013
3.38400006 0.58999997 5.42199993
3.36100006 0.59100002 5.42299986
3.12400007 0.51599997 5.37599993
3.33200002 0.184 5.32700014
3.40599990 0.101 5.47800016
3.30699992 0.5 5.04400015
3.52900004 0.48100001 5.06400013
3.50200009 0.70200002 4.95800018
3.51099992 0.403 5.26399994
3.52300000 0.71899998 4.96400023
3.32900000 0.96399999 5.01300001
3.20000005 0.64399999 5.16099977
3.31599998 0.59200001 5.41699982
3.51799989 0.40599999 5.30600023
3.17000008 0.81099999 4.9920001
3.60700011 0.48500001 5.19399977
3.62199998 0.90600002 5.05000019
3.32699990 0.15899999 5.35300016
3.57699990 0.43599999 5.10099983
3.55699992 0.61900002 5.20900011
3.44899988 0.80000001 4.92299986
3.53399992 0.39899999 5.21799994
3.68499994 0.95999998 4.9920001
3.54399991 0.68800002 5.00099993
3.15100002 0.48899999 5.28200006
3.14000010 0.46900001 5.51000023
3.32599998 0.102 5.43499994
3.49699998 0.56599998 5.55700016
3.55900002 0.634 5.04099989
3.27699995 0.60600001 5.18400002
3.41899991 0.588 5.21899986
3.34400010 0.123 5.26000023
3.40599990 0.124 5.2249999
3.45900011 0.38 5.3579998
3.14599991 0.537 5.31599998
3.24300003 0.58200002 5.52400017
3.50600004 0.55900002 5.31699991
3.58400011 0.43700001 5.23000002
3.27099991 0.1 5.15899992
3.28299999 0.66500002 5.00899982
3.57699990 0.77499998 5.15600014
3.47900009 0.61699998 4.99700022
3.55399990 0.82700002 5.11899996
3.33599997 0.131 5.39400005
3.29299998 0.154 5.37400007
3.40499997 0.73000002 4.94000006
3.42799997 0.792 4.92500019
3.54600000 0.662 5.01999998
3.31699991 0.85399997 5.06899977
3.33999991 0.99299997 4.93100023
3.40300012 0.107 5.48799992
3.64100003 0.495 5.15899992
3.17400002 0.84600002 5.10099983
3.25900006 0.54699999 5.06599998
3.33899999 0.59899998 5.19899988
3.16000009 0.56999999 5.11800003
3.24900007 0.55699998 5.25699997
3.14400005 0.66399997 5.11899996
3.53099990 0.45500001 5.07600021
3.15499997 0.53200001 5.29899979
3.46000004 0.54900002 5.26100016
3.31800008 0.046 5.65199995
3.63499999 0.50300002 5.13199997
3.47199988 0.667 5.18400002
3.62500000 0.76200002 5.0170002
3.57100010 0.447 5.53000021
3.15599990 0.54299998 5.31099987
3.49600005 0.579 5.52899981
3.40499997 0.95999998 4.92199993
3.33500004 0.05 5.64400005
3.23099995 0.546 5.22399998
3.54299998 0.83499998 4.91200018
3.35100007 0.211 5.32999992
3.29500008 0.81699997 4.92199993
3.29299998 0.101 5.21799994
3.67600012 0.73299998 5.13500023
3.16599989 0.69599998 5.08500004
3.56500006 0.72000003 4.99599981
3.60299993 0.40799999 5.46199989
3.27699995 0.59399998 5.5
3.54699993 0.54500002 5.05700016
3.20099998 0.56900001 5.55000019
3.59699988 0.419 5.14900017
3.37199998 0.49900001 5.01499987
3.27099991 0.833 4.91900015
3.13800001 0.79000002 5.08300018
