# .PCD v0.7 - Point Cloud Data file format
VERSION 0.7
FIELDS x y z
SIZE 4 4 4
TYPE F F F
COUNT 1 1 1
WIDTH 1503
HEIGHT 1
VIEWPOINT 0 0 0 1 0 0 0
POINTS 1503
DATA ascii
3.78800011 0.36399999 0.65899998
3.48799992 0.73400003 0.66900003
3.58800006 0.56400001 0.43900001
2.42799997 0.78399998 0.67900002
2.19799995 0.78399998 0.889
3.72799993 0.64399999 0.65899998
3.65799999 0.77399999 0.42899999
3.37800002 0.74400002 0.249
2.55800009 0.78399998 0.34900001
2.32800007 0.78399998 0.64899999
2.89800000 0.78399998 0.29899999
2.42799997 0.77399999 0.91900003
3.01799989 0.764 0.579
2.52800012 0.764 0.92900002
3.35800004 0.77399999 0.33899999
2.88800001 0.77399999 0.66900003
3.81800008 0.75400001 0.62900001
3.66799998 0.30399999 0.65899998
3.66799998 0.79400003 0.249
3.94799995 0.324 0.65899998
3.56800008 0.62400001 0.59899998
2.38800001 0.72399998 0.91900003
3.64800000 0.704 0.71899998
3.84800005 0.414 0.65899998
3.81800008 0.81400001 0.189
3.29800010 0.764 0.219
2.99799991 0.764 0.53899997
3.97799993 0.084 0.62900001
2.18799996 0.044 0.89899999
2.92799997 0.77399999 0.70899999
3.72799993 0.59399998 0.65899998
2.42799997 0.77399999 0.92900002
3.26799989 0.75400001 0.49900001
2.57800007 0.78399998 0.64899999
2.45799994 0.78399998 0.58899999
3.55800009 0.764 0.52899998
2.20799994 0.53399998 0.829
3.80800009 0.79400003 0.37900001
2.73799992 0.78399998 0.45899999
2.20799994 0.39399999 0.84899998
3.88800001 0.824 0.189
2.76799989 0.77399999 0.65899998
2.46799994 0.78399998 0.31900001
3.54800010 0.77399999 0.479
2.79800010 0.78399998 0.31900001
2.58800006 0.764 0.92900002
3.56800008 0.37400001 0.66900003
3.15799999 0.75400001 0.60900003
2.67799997 0.77399999 0.829
3.63800001 0.324 0.65899998
3.57800007 0.77399999 0.39899999
2.21799994 0.73400003 0.93900001
3.74799991 0.78399998 0.45899999
3.57800007 0.53399998 0.39899999
3.58800006 0.79400003 0.20900001
2.77800012 0.78399998 0.189
2.63800001 0.77399999 0.389
2.90799999 0.77399999 0.759
3.58800006 0.67400002 0.64899999
4.01800013 0.60399997 0.64899999
2.47799993 0.764 0.92900002
3.30800009 0.77399999 0.39899999
3.55800009 0.81400001 0.099
3.75799990 0.81400001 0.17900001
3.64800000 0.75400001 0.73900002
3.73799992 0.81400001 0.17900001
2.44799995 0.73400003 0.889
3.89800000 0.704 0.66900003
2.62800002 0.764 0.85900003
3.76799989 0.79400003 0.31900001
2.95799994 0.764 0.51899999
2.61800003 0.78399998 0.759
3.82800007 0.80400002 0.289
2.68799996 0.764 0.90899998
2.82800007 0.77399999 0.84899998
3.60800004 0.59399998 0.67900002
2.23799992 0.704 0.92900002
3.78800011 0.80400002 0.249
3.82800007 0.42399999 0.65899998
3.73799992 0.37400001 0.65899998
3.77800012 0.33399999 0.65899998
3.75799990 0.43399999 0.65899998
2.21799994 0.414 0.86900002
2.75799990 0.78399998 0.45899999
2.60800004 0.80400002 0.289
3.92799997 0.28400001 0.65899998
3.79800010 0.64399999 0.64899999
3.79800010 0.34400001 0.65899998
3.37800002 0.77399999 0.389
3.33800006 0.75400001 0.26899999
3.90799999 0.39399999 0.65899998
3.82800007 0.824 0.149
2.52800012 0.78399998 0.65899998
3.79800010 0.74400002 0.70899999
2.58800006 0.78399998 0.71899998
2.43799996 0.77399999 0.829
3.97799993 0.54400003 0.64899999
3.65799999 0.75400001 0.759
3.55800009 0.62400001 0.54900002
2.41799998 0.78399998 0.699
2.47799993 0.78399998 0.40900001
2.27800012 0.77399999 0.92900002
3.58800006 0.75400001 0.67900002
3.72799993 0.69400001 0.699
3.86800003 0.75400001 0.579
2.26799989 0.79400003 0.72899997
3.79800010 0.78399998 0.509
2.48799992 0.78399998 0.49900001
3.38800001 0.77399999 0.40900001
2.52800012 0.77399999 0.76899999
3.75799990 0.79400003 0.34900001
4.00799990 0.454 0.64899999
3.67799997 0.77399999 0.43900001
2.50799990 0.74400002 0.90899998
2.79800010 0.78399998 0.39899999
2.70799994 0.78399998 0.36899999
2.84800005 0.77399999 0.74900001
2.92799997 0.83399999 0.199
2.51799989 0.78399998 0.60900003
3.51799989 0.764 0.579
2.60800004 0.80400002 0.229
3.89800000 0.64399999 0.64899999
3.51799989 0.56400001 0.58899999
3.60800004 0.77399999 0.42899999
3.88800001 0.74400002 0.60900003
3.76799989 0.414 0.65899998
3.80800009 0.824 0.12899999
3.61800003 0.80400002 0.17900001
2.18799996 0.054 0.79900002
4.01800013 0.40400001 0.639
3.83800006 0.80400002 0.30899999
3.83800006 0.824 0.119
3.74799991 0.75400001 0.61900002
2.91799998 0.77399999 0.43900001
3.88800001 0.75400001 0.55900002
3.62800002 0.67400002 0.699
3.95799994 0.73400003 0.639
3.55800009 0.764 0.249
3.56800008 0.764 0.579
2.84800005 0.77399999 0.49900001
2.64800000 0.81400001 0.249
2.46799994 0.77399999 0.829
3.37800002 0.75400001 0.579
3.50799990 0.764 0.62900001
3.26799989 0.74400002 0.579
3.91799998 0.244 0.65899998
3.37800002 0.77399999 0.359
3.93799996 0.39399999 0.65899998
2.70799994 0.764 0.89899999
2.70799994 0.79400003 0.229
2.33800006 0.78399998 0.53899997
3.61800003 0.37400001 0.65899998
3.44799995 0.764 0.48899999
3.94799995 0.184 0.65899998
2.20799994 0.46399999 0.83899999
3.39800000 0.72399998 0.61900002
2.21799994 0.62400001 0.84899998
3.35800004 0.77399999 0.43900001
2.69799995 0.764 0.90899998
3.74799991 0.64399999 0.65899998
2.74799991 0.79400003 0.189
3.88800001 0.73400003 0.66900003
2.76799989 0.764 0.85900003
2.58800006 0.78399998 0.699
2.42799997 0.79400003 0.359
3.61800003 0.69400001 0.71899998
3.54800010 0.66399997 0.59899998
3.58800006 0.80400002 0.17900001
3.73799992 0.62400001 0.64899999
3.00799990 0.764 0.509
3.58800006 0.61400002 0.59899998
3.22799993 0.764 0.449
2.20799994 0.75400001 0.79900002
3.95799994 0.83399999 0.169
3.04800010 0.764 0.53899997
2.34800005 0.78399998 0.66900003
3.84800005 0.72399998 0.699
2.50799990 0.77399999 0.759
4.01800013 0.36399999 0.639
3.52800012 0.764 0.60900003
3.72799993 0.634 0.65899998
3.76799989 0.69400001 0.699
2.23799992 0.77399999 0.92900002
2.20799994 0.39399999 0.89899999
3.67799997 0.77399999 0.51899999
3.75799990 0.74400002 0.67900002
2.21799994 0.55400002 0.889
3.88800001 0.25400001 0.65899998
2.19799995 0.054 0.76899999
3.98799992 0.764 0.59899998
3.76799989 0.54400003 0.65899998
3.91799998 0.824 0.17900001
3.89800000 0.74400002 0.62900001
2.66799998 0.78399998 0.52899998
2.78800011 0.78399998 0.26899999
3.66799998 0.80400002 0.15899999
3.06800008 0.77399999 0.39899999
3.59800005 0.59399998 0.67900002
3.92799997 0.574 0.64899999
3.19799995 0.75400001 0.58899999
3.84800005 0.39399999 0.65899998
2.48799992 0.78399998 0.419
3.41799998 0.74400002 0.64899999
3.63800001 0.67400002 0.70899999
2.39800000 0.77399999 0.81900001
2.58800006 0.78399998 0.73900002
2.96799994 0.77399999 0.76899999
2.75799990 0.77399999 0.73900002
3.56800008 0.764 0.53899997
2.60800004 0.78399998 0.52899998
3.36800003 0.77399999 0.29899999
2.75799990 0.77399999 0.51899999
3.91799998 0.81400001 0.249
3.89800000 0.72399998 0.68900001
3.73799992 0.574 0.65899998
3.56800008 0.61400002 0.579
2.19799995 0.78399998 0.93900001
2.33800006 0.78399998 0.78899997
3.59800005 0.33399999 0.65899998
3.49799991 0.75400001 0.639
2.95799994 0.77399999 0.49900001
2.39800000 0.78399998 0.59899998
3.64800000 0.33399999 0.65899998
2.18799996 0.054 0.78899997
3.44799995 0.77399999 0.36899999
3.96799994 0.64399999 0.64899999
3.86800003 0.80400002 0.33899999
2.21799994 0.53399998 0.87900001
2.54800010 0.78399998 0.27900001
3.67799997 0.54400003 0.65899998
2.36800003 0.78399998 0.56900001
2.76799989 0.77399999 0.83899999
2.24799991 0.79400003 0.74900001
3.25799990 0.764 0.43900001
3.95799994 0.75400001 0.59899998
3.95799994 0.084 0.639
3.87800002 0.62400001 0.64899999
2.70799994 0.79400003 0.15899999
2.64800000 0.77399999 0.76899999
2.38800001 0.78399998 0.53899997
3.45799994 0.77399999 0.39899999
3.40799999 0.77399999 0.359
3.84800005 0.49399999 0.65899998
3.73799992 0.36399999 0.65899998
3.72799993 0.75400001 0.65899998
3.81800008 0.59399998 0.64899999
3.78800011 0.49399999 0.65899998
3.86800003 0.80400002 0.329
2.39800000 0.77399999 0.889
2.49799991 0.78399998 0.39899999
2.95799994 0.77399999 0.389
3.67799997 0.79400003 0.23899999
2.80800009 0.77399999 0.72899997
4.00799990 0.104 0.62900001
2.51799989 0.78399998 0.39899999
3.17799997 0.764 0.419
4.01800013 0.65399998 0.64899999
3.87800002 0.68400002 0.65899998
3.73799992 0.78399998 0.36899999
2.83800006 0.77399999 0.67900002
3.65799999 0.79400003 0.259
3.42799997 0.75400001 0.639
3.80800009 0.81400001 0.189
2.87800002 0.81400001 0.189
3.93799996 0.264 0.65899998
2.55800009 0.764 0.89899999
3.50799990 0.74400002 0.699
2.70799994 0.78399998 0.73900002
3.32800007 0.764 0.219
3.64800000 0.354 0.65899998
3.51799989 0.77399999 0.289
2.93799996 0.78399998 0.359
3.60800004 0.77399999 0.36899999
3.54800010 0.764 0.229
3.26799989 0.77399999 0.30899999
3.59800005 0.39399999 0.65899998
2.89800000 0.77399999 0.79900002
3.61800003 0.78399998 0.27900001
3.92799997 0.36399999 0.65899998
3.52800012 0.77399999 0.40900001
2.42799997 0.78399998 0.39899999
3.83800006 0.79400003 0.33899999
3.74799991 0.68400002 0.67900002
3.27800012 0.764 0.27900001
3.55800009 0.49399999 0.359
2.67799997 0.77399999 0.81900001
2.33800006 0.78399998 0.65899998
2.21799994 0.75400001 0.74900001
3.15799999 0.74400002 0.639
2.66799998 0.80400002 0.229
2.53800011 0.78399998 0.40900001
3.59800005 0.80400002 0.139
3.93799996 0.46399999 0.65899998
3.67799997 0.77399999 0.45899999
3.40799999 0.77399999 0.34900001
2.68799996 0.78399998 0.48899999
2.52800012 0.78399998 0.68900001
3.19799995 0.77399999 0.27900001
3.90799999 0.824 0.169
2.50799990 0.78399998 0.56900001
3.04800010 0.77399999 0.419
2.77800012 0.77399999 0.83899999
2.20799994 0.79400003 0.62900001
3.75799990 0.78399998 0.45899999
2.54800010 0.77399999 0.30899999
3.92799997 0.37400001 0.65899998
2.54800010 0.77399999 0.78899997
2.51799989 0.78399998 0.33899999
3.50799990 0.77399999 0.389
3.95799994 0.65399998 0.64899999
3.35800004 0.75400001 0.259
2.83800006 0.77399999 0.61900002
2.48799992 0.78399998 0.51899999
3.88800001 0.244 0.65899998
2.37800002 0.73400003 0.93900001
2.55800009 0.78399998 0.51899999
3.61800003 0.81400001 0.099
2.83800006 0.77399999 0.48899999
3.57800007 0.59399998 0.62900001
3.51799989 0.77399999 0.419
2.83800006 0.78399998 0.39899999
2.67799997 0.79400003 0.289
3.67799997 0.79400003 0.26899999
3.31800008 0.77399999 0.43900001
3.39800000 0.77399999 0.389
3.66799998 0.81400001 0.119
3.82800007 0.80400002 0.30899999
2.36800003 0.78399998 0.759
3.58800006 0.77399999 0.27900001
2.20799994 0.39399999 0.86900002
2.58800006 0.78399998 0.509
3.70799994 0.77399999 0.45899999
2.89800000 0.77399999 0.73900002
2.73799992 0.77399999 0.73900002
3.36800003 0.77399999 0.389
2.30800009 0.78399998 0.579
4.00799990 0.39399999 0.639
3.90799999 0.514 0.64899999
3.61800003 0.75400001 0.76899999
3.80800009 0.484 0.65899998
2.58800006 0.78399998 0.48899999
3.80800009 0.73400003 0.70899999
2.68799996 0.79400003 0.17900001
2.75799990 0.79400003 0.169
2.47799993 0.78399998 0.59899998
2.44799995 0.78399998 0.54900002
3.10800004 0.77399999 0.43900001
3.71799994 0.30399999 0.65899998
3.85800004 0.59399998 0.64899999
3.81800008 0.80400002 0.259
2.77800012 0.77399999 0.55900002
3.17799997 0.764 0.449
3.95799994 0.60399997 0.64899999
3.75799990 0.244 0.65899998
3.57800007 0.61400002 0.49900001
2.43799996 0.78399998 0.42899999
3.57800007 0.73400003 0.71899998
3.79800010 0.79400003 0.30899999
2.51799989 0.78399998 0.759
3.69799995 0.39399999 0.65899998
2.20799994 0.384 0.83899999
3.33800006 0.77399999 0.43900001
3.96799994 0.19400001 0.64899999
2.69799995 0.79400003 0.359
2.55800009 0.77399999 0.77899998
2.20799994 0.49399999 0.81900001
2.20799994 0.42399999 0.85900003
2.20799994 0.54400003 0.90899998
3.51799989 0.77399999 0.17900001
3.57800007 0.54400003 0.49900001
2.46799994 0.78399998 0.56900001
3.75799990 0.77399999 0.49900001
2.81800008 0.77399999 0.62900001
3.96799994 0.69400001 0.64899999
3.26799989 0.75400001 0.48899999
2.20799994 0.46399999 0.84899998
2.34800005 0.78399998 0.67900002
2.18799996 0.56400001 0.92900002
3.61800003 0.47400001 0.65899998
3.66799998 0.79400003 0.23899999
2.20799994 0.574 0.829
3.86800003 0.80400002 0.26899999
3.70799994 0.514 0.65899998
2.27800012 0.78399998 0.70899999
3.77800012 0.75400001 0.60900003
3.75799990 0.74400002 0.72899997
3.29800010 0.764 0.23899999
2.72799993 0.78399998 0.29899999
2.36800003 0.78399998 0.78899997
2.20799994 0.74400002 0.76899999
2.50799990 0.764 0.93900001
3.44799995 0.764 0.58899999
3.05800009 0.764 0.48899999
3.59800005 0.80400002 0.109
2.50799990 0.80400002 0.249
3.93799996 0.50400001 0.64899999
3.49799991 0.75400001 0.64899999
3.87800002 0.37400001 0.65899998
2.44799995 0.78399998 0.59899998
3.70799994 0.75400001 0.67900002
2.95799994 0.764 0.699
3.69799995 0.66399997 0.67900002
2.80800009 0.78399998 0.329
3.46799994 0.71399999 0.62900001
2.39800000 0.72399998 0.89899999
2.21799994 0.78399998 0.639
2.92799997 0.764 0.52899998
3.94799995 0.064 0.639
3.84800005 0.81400001 0.20900001
3.84800005 0.704 0.67900002
2.62800002 0.81400001 0.249
3.86800003 0.25400001 0.65899998
2.70799994 0.78399998 0.639
3.11800003 0.764 0.48899999
2.88800001 0.77399999 0.51899999
4.02799988 0.53399998 0.639
3.59800005 0.66399997 0.65899998
2.64800000 0.79400003 0.30899999
3.17799997 0.77399999 0.39899999
3.64800000 0.79400003 0.229
3.90799999 0.74400002 0.579
3.69799995 0.81400001 0.149
3.70799994 0.77399999 0.53899997
2.64800000 0.78399998 0.579
2.43799996 0.79400003 0.329
3.76799989 0.78399998 0.48899999
3.28800011 0.77399999 0.37900001
3.39800000 0.764 0.55900002
2.52800012 0.78399998 0.359
3.68799996 0.61400002 0.65899998
3.04800010 0.78399998 0.329
4.02799988 0.43399999 0.62900001
3.86800003 0.824 0.119
3.98799992 0.094 0.62900001
2.33800006 0.77399999 0.89899999
3.61800003 0.75400001 0.73900002
3.65799999 0.58399999 0.65899998
2.83800006 0.77399999 0.81900001
3.86800003 0.77399999 0.53899997
2.86800003 0.824 0.199
3.99799991 0.47400001 0.64899999
2.53800011 0.764 0.91900003
2.18799996 0.574 0.92900002
3.31800008 0.75400001 0.53899997
3.91799998 0.61400002 0.64899999
3.55800009 0.65399998 0.56900001
2.75799990 0.79400003 0.139
2.80800009 0.77399999 0.59899998
3.85800004 0.81400001 0.23899999
2.96799994 0.77399999 0.43900001
2.40799999 0.72399998 0.90899998
3.83800006 0.56400001 0.64899999
2.43799996 0.77399999 0.78899997
2.68799996 0.78399998 0.68900001
3.69799995 0.80400002 0.199
2.81800008 0.78399998 0.199
3.51799989 0.764 0.189
3.87800002 0.80400002 0.329
3.10800004 0.75400001 0.62900001
3.87800002 0.704 0.67900002
2.50799990 0.764 0.87900001
3.61800003 0.54400003 0.65899998
3.75799990 0.42399999 0.65899998
2.36800003 0.78399998 0.58899999
3.71799994 0.634 0.65899998
2.56800008 0.78399998 0.639
2.67799997 0.77399999 0.80900002
4.00799990 0.324 0.639
3.74799991 0.79400003 0.29899999
3.84800005 0.75400001 0.56900001
2.96799994 0.764 0.67900002
2.81800008 0.78399998 0.229
2.30800009 0.78399998 0.87900001
3.14800000 0.764 0.449
2.74799991 0.77399999 0.80900002
3.97799993 0.30399999 0.64899999
2.85800004 0.78399998 0.34900001
3.57800007 0.514 0.42899999
2.67799997 0.79400003 0.29899999
3.55800009 0.65399998 0.579
3.15799999 0.78399998 0.30899999
2.58800006 0.78399998 0.329
3.95799994 0.22400001 0.65899998
2.39800000 0.78399998 0.48899999
2.60800004 0.78399998 0.49900001
2.72799993 0.78399998 0.52899998
3.60800004 0.77399999 0.46900001
2.46799994 0.77399999 0.77899998
3.74799991 0.75400001 0.65899998
2.86800003 0.77399999 0.66900003
2.77800012 0.77399999 0.62900001
3.95799994 0.164 0.65899998
2.20799994 0.414 0.89899999
2.50799990 0.75400001 0.949
3.72799993 0.53399998 0.65899998
3.05800009 0.764 0.479
3.00799990 0.764 0.73900002
3.73799992 0.30399999 0.65899998
2.28800011 0.78399998 0.76899999
2.20799994 0.74400002 0.759
3.47799993 0.764 0.51899999
3.93799996 0.414 0.65899998
3.54800010 0.71399999 0.64899999
2.66799998 0.79400003 0.33899999
3.41799998 0.72399998 0.61900002
3.47799993 0.75400001 0.66900003
3.57800007 0.77399999 0.389
3.54800010 0.74400002 0.72899997
3.81800008 0.234 0.65899998
4.00799990 0.354 0.639
3.13800001 0.75400001 0.62900001
2.53800011 0.78399998 0.62900001
2.19799995 0.75400001 0.81900001
2.80800009 0.78399998 0.39899999
2.99799991 0.75400001 0.66900003
3.61800003 0.704 0.699
3.83800006 0.65399998 0.64899999
2.95799994 0.764 0.58899999
3.61800003 0.67400002 0.67900002
3.77800012 0.75400001 0.62900001
3.73799992 0.81400001 0.169
3.33800006 0.764 0.26899999
3.03800011 0.78399998 0.31900001
2.18799996 0.75400001 0.93900001
3.70799994 0.764 0.60900003
3.42799997 0.77399999 0.329
2.98799992 0.764 0.58899999
3.92799997 0.83399999 0.109
3.94799995 0.214 0.65899998
2.25799990 0.79400003 0.759
3.57800007 0.79400003 0.189
3.44799995 0.77399999 0.389
2.35800004 0.78399998 0.73900002
2.46799994 0.78399998 0.67900002
2.28800011 0.78399998 0.829
2.21799994 0.59399998 0.89899999
3.79800010 0.764 0.53899997
2.53800011 0.78399998 0.39899999
3.79800010 0.74400002 0.699
2.73799992 0.80400002 0.20900001
2.79800010 0.78399998 0.37900001
2.19799995 0.054 0.84899998
2.90799999 0.764 0.579
2.56800008 0.78399998 0.389
3.57800007 0.33399999 0.65899998
2.57800007 0.81400001 0.259
3.01799989 0.764 0.73900002
2.96799994 0.77399999 0.449
3.83800006 0.354 0.65899998
3.64800000 0.67400002 0.699
2.85800004 0.78399998 0.289
3.98799992 0.124 0.639
2.69799995 0.78399998 0.43900001
3.69799995 0.80400002 0.169
2.69799995 0.79400003 0.199
2.19799995 0.77399999 0.85900003
3.78800011 0.81400001 0.20900001
2.70799994 0.78399998 0.40900001
3.93799996 0.294 0.65899998
3.69799995 0.77399999 0.55900002
3.08800006 0.77399999 0.40900001
2.45799994 0.78399998 0.72899997
3.27800012 0.77399999 0.34900001
2.89800000 0.764 0.56900001
3.76799989 0.77399999 0.51899999
2.84800005 0.78399998 0.30899999
3.87800002 0.824 0.12899999
2.50799990 0.78399998 0.419
3.71799994 0.79400003 0.33899999
3.10800004 0.75400001 0.59899998
2.21799994 0.60399997 0.89899999
2.57800007 0.764 0.889
3.76799989 0.36399999 0.65899998
3.80800009 0.56400001 0.65899998
2.72799993 0.79400003 0.219
4.03800011 0.14399999 0.61900002
3.26799989 0.764 0.259
2.54800010 0.78399998 0.34900001
3.56800008 0.62400001 0.58899999
3.80800009 0.80400002 0.29899999
3.29800010 0.74400002 0.55900002
3.70799994 0.28400001 0.65899998
3.80800009 0.80400002 0.259
3.01799989 0.75400001 0.639
3.83800006 0.384 0.65899998
2.51799989 0.78399998 0.31900001
3.76799989 0.634 0.64899999
2.95799994 0.77399999 0.48899999
3.55800009 0.56400001 0.56900001
3.53800011 0.75400001 0.699
2.43799996 0.78399998 0.52899998
3.59800005 0.75400001 0.66900003
2.68799996 0.78399998 0.449
2.39800000 0.764 0.949
2.78800011 0.78399998 0.389
3.40799999 0.764 0.29899999
3.63800001 0.78399998 0.329
3.05800009 0.764 0.49900001
3.80800009 0.42399999 0.65899998
3.56800008 0.764 0.51899999
3.70799994 0.80400002 0.189
2.39800000 0.78399998 0.579
3.50799990 0.764 0.52899998
2.19799995 0.36399999 0.83899999
2.56800008 0.77399999 0.81900001
2.17799997 0.384 0.92900002
3.65799999 0.25400001 0.65899998
3.78800011 0.294 0.65899998
2.31800008 0.78399998 0.829
3.50799990 0.764 0.58899999
3.96799994 0.75400001 0.59899998
3.67799997 0.80400002 0.219
2.65799999 0.80400002 0.199
3.53800011 0.764 0.58899999
2.24799991 0.73400003 0.93900001
2.95799994 0.764 0.70899999
2.21799994 0.54400003 0.889
3.38800001 0.764 0.54900002
2.39800000 0.72399998 0.92900002
3.92799997 0.73400003 0.64899999
2.76799989 0.78399998 0.36899999
3.14800000 0.77399999 0.36899999
3.78800011 0.66399997 0.65899998
2.73799992 0.77399999 0.62900001
2.20799994 0.484 0.83899999
3.67799997 0.764 0.579
3.60800004 0.59399998 0.639
3.65799999 0.75400001 0.74900001
3.63800001 0.42399999 0.65899998
3.66799998 0.75400001 0.699
3.82800007 0.264 0.65899998
2.44799995 0.77399999 0.86900002
2.21799994 0.67400002 0.85900003
2.81800008 0.77399999 0.83899999
2.83800006 0.77399999 0.83899999
3.19799995 0.73400003 0.639
3.58800006 0.764 0.59899998
3.93799996 0.52399999 0.64899999
2.19799995 0.054 0.81900001
3.39800000 0.764 0.51899999
3.49799991 0.764 0.54900002
2.43799996 0.79400003 0.31900001
3.96799994 0.17399999 0.64899999
2.20799994 0.414 0.85900003
2.30800009 0.72399998 0.93900001
2.21799994 0.414 0.829
3.92799997 0.74400002 0.58899999
2.88800001 0.77399999 0.81900001
3.67799997 0.79400003 0.259
2.77800012 0.78399998 0.259
3.80800009 0.81400001 0.219
2.59800005 0.78399998 0.67900002
3.29800010 0.77399999 0.20900001
3.56800008 0.62400001 0.54900002
3.57800007 0.56400001 0.54900002
3.55800009 0.484 0.33899999
3.28800011 0.77399999 0.31900001
2.69799995 0.78399998 0.66900003
3.14800000 0.75400001 0.52899998
2.20799994 0.60399997 0.91900003
2.36800003 0.78399998 0.66900003
3.22799993 0.75400001 0.48899999
2.76799989 0.77399999 0.74900001
3.55800009 0.764 0.30899999
2.81800008 0.764 0.86900002
2.39800000 0.78399998 0.70899999
2.57800007 0.78399998 0.46900001
4.01800013 0.234 0.62900001
3.27800012 0.77399999 0.329
3.47799993 0.764 0.62900001
2.63800001 0.77399999 0.76899999
2.19799995 0.74400002 0.78899997
2.20799994 0.50400001 0.91900003
2.19799995 0.58399999 0.92900002
2.48799992 0.78399998 0.449
3.61800003 0.79400003 0.229
2.35800004 0.77399999 0.86900002
3.57800007 0.54400003 0.43900001
2.17799997 0.74400002 0.64899999
2.63800001 0.80400002 0.259
3.97799993 0.28400001 0.64899999
2.77800012 0.77399999 0.76899999
3.49799991 0.77399999 0.30899999
2.35800004 0.79400003 0.46900001
2.89800000 0.764 0.53899997
3.78800011 0.53399998 0.65899998
2.91799998 0.764 0.66900003
3.45799994 0.74400002 0.67900002
3.83800006 0.75400001 0.60900003
3.84800005 0.42399999 0.65899998
2.20799994 0.34400001 0.89899999
3.18799996 0.764 0.449
3.75799990 0.78399998 0.42899999
3.19799995 0.77399999 0.289
2.65799999 0.78399998 0.39899999
3.81800008 0.30399999 0.65899998
3.88800001 0.83399999 0.099
4.03800011 0.214 0.61900002
2.77800012 0.78399998 0.449
2.66799998 0.79400003 0.36899999
3.77800012 0.79400003 0.29899999
2.74799991 0.77399999 0.83899999
3.92799997 0.58399999 0.64899999
2.30800009 0.78399998 0.639
3.59800005 0.64399999 0.639
4.02799988 0.19400001 0.62900001
2.32800007 0.77399999 0.91900003
3.00799990 0.764 0.74900001
3.28800011 0.74400002 0.59899998
3.37800002 0.764 0.49900001
4.00799990 0.75400001 0.61900002
3.55800009 0.50400001 0.33899999
3.61800003 0.77399999 0.29899999
3.01799989 0.764 0.55900002
3.61800003 0.72399998 0.759
3.82800007 0.69400001 0.66900003
3.92799997 0.81400001 0.229
2.24799991 0.78399998 0.74900001
3.30800009 0.77399999 0.43900001
4.00799990 0.44400001 0.64899999
3.59800005 0.764 0.31900001
2.51799989 0.78399998 0.36899999
2.92799997 0.78399998 0.34900001
4.00799990 0.59399998 0.64899999
3.85800004 0.354 0.65899998
2.39800000 0.80400002 0.289
3.33800006 0.77399999 0.329
3.85800004 0.75400001 0.58899999
2.90799999 0.78399998 0.359
3.84800005 0.80400002 0.259
2.61800003 0.80400002 0.20900001
2.19799995 0.74400002 0.66900003
2.44799995 0.78399998 0.51899999
2.59800005 0.80400002 0.259
3.69799995 0.60399997 0.65899998
3.39800000 0.77399999 0.29899999
3.95799994 0.49399999 0.64899999
2.45799994 0.77399999 0.79900002
3.76799989 0.324 0.65899998
2.95799994 0.77399999 0.78899997
2.62800002 0.78399998 0.66900003
3.08800006 0.764 0.49900001
2.77800012 0.764 0.87900001
2.70799994 0.824 0.249
3.56800008 0.704 0.639
2.19799995 0.19400001 0.91900003
3.57800007 0.55400002 0.49900001
3.63800001 0.634 0.67900002
3.70799994 0.77399999 0.54900002
2.64800000 0.78399998 0.419
2.37800002 0.78399998 0.579
2.96799994 0.77399999 0.39899999
3.46799994 0.75400001 0.62900001
3.24799991 0.74400002 0.62900001
3.91799998 0.81400001 0.27900001
3.56800008 0.80400002 0.109
2.18799996 0.134 0.92900002
3.86800003 0.824 0.169
2.30800009 0.77399999 0.889
3.79800010 0.79400003 0.34900001
2.84800005 0.78399998 0.36899999
2.45799994 0.78399998 0.449
3.57800007 0.55400002 0.45899999
2.56800008 0.77399999 0.829
2.18799996 0.154 0.92900002
3.66799998 0.414 0.65899998
3.78800011 0.28400001 0.65899998
3.91799998 0.75400001 0.579
2.43799996 0.78399998 0.73900002
3.12800002 0.75400001 0.56900001
3.75799990 0.454 0.65899998
3.56800008 0.764 0.31900001
2.70799994 0.78399998 0.42899999
3.65799999 0.80400002 0.219
3.62800002 0.75400001 0.66900003
2.97799993 0.764 0.67900002
2.44799995 0.78399998 0.34900001
3.11800003 0.75400001 0.579
2.65799999 0.77399999 0.829
3.30800009 0.77399999 0.36899999
3.76799989 0.77399999 0.48899999
2.71799994 0.79400003 0.20900001
2.23799992 0.764 0.93900001
3.16799998 0.74400002 0.60900003
3.84800005 0.71399999 0.67900002
2.20799994 0.52399999 0.83899999
2.62800002 0.78399998 0.54900002
2.85800004 0.77399999 0.45899999
3.57800007 0.77399999 0.36899999
2.54800010 0.78399998 0.36899999
4.02799988 0.54400003 0.639
2.18799996 0.78399998 0.89899999
2.66799998 0.764 0.91900003
3.71799994 0.80400002 0.199
3.86800003 0.81400001 0.259
3.57800007 0.58399999 0.51899999
2.38800001 0.78399998 0.46900001
3.75799990 0.764 0.53899997
3.21799994 0.74400002 0.61900002
2.21799994 0.61400002 0.86900002
3.63800001 0.30399999 0.65899998
3.17799997 0.75400001 0.509
2.69799995 0.77399999 0.78899997
2.43799996 0.77399999 0.83899999
2.51799989 0.764 0.889
3.75799990 0.28400001 0.65899998
2.76799989 0.78399998 0.43900001
2.61800003 0.80400002 0.23899999
3.55800009 0.764 0.23899999
3.93799996 0.244 0.65899998
2.35800004 0.73400003 0.93900001
3.53800011 0.72399998 0.66900003
3.88800001 0.234 0.65899998
3.57800007 0.58399999 0.55900002
2.74799991 0.77399999 0.59899998
3.97799993 0.154 0.64899999
3.80800009 0.54400003 0.65899998
3.49799991 0.77399999 0.329
2.41799998 0.77399999 0.81900001
2.51799989 0.78399998 0.40900001
3.53800011 0.75400001 0.64899999
3.62800002 0.53399998 0.65899998
2.21799994 0.52399999 0.85900003
2.71799994 0.78399998 0.60900003
3.67799997 0.75400001 0.699
3.77800012 0.79400003 0.359
3.86800003 0.54400003 0.64899999
3.70799994 0.50400001 0.65899998
2.36800003 0.78399998 0.60900003
3.60800004 0.66399997 0.66900003
3.58800006 0.75400001 0.68900001
2.79800010 0.77399999 0.70899999
3.74799991 0.68400002 0.68900001
2.20799994 0.49399999 0.89899999
2.61800003 0.764 0.85900003
3.71799994 0.68400002 0.699
2.76799989 0.77399999 0.46900001
2.73799992 0.79400003 0.23899999
3.94799995 0.134 0.64899999
2.44799995 0.79400003 0.249
2.79800010 0.77399999 0.49900001
3.70799994 0.74400002 0.73900002
2.20799994 0.52399999 0.92900002
3.60800004 0.59399998 0.61900002
3.74799991 0.824 0.109
4.01800013 0.49399999 0.64899999
3.21799994 0.77399999 0.26899999
2.61800003 0.78399998 0.419
3.51799989 0.764 0.59899998
3.97799993 0.17399999 0.64899999
2.41799998 0.80400002 0.31900001
2.19799995 0.19400001 0.90899998
2.36800003 0.78399998 0.61900002
3.73799992 0.80400002 0.189
3.51799989 0.764 0.249
2.20799994 0.64399999 0.92900002
3.73799992 0.764 0.58899999
2.62800002 0.78399998 0.65899998
3.91799998 0.81400001 0.229
3.85800004 0.764 0.54900002
2.56800008 0.77399999 0.84899998
3.09800005 0.764 0.449
2.23799992 0.78399998 0.65899998
3.27800012 0.74400002 0.60900003
3.69799995 0.74400002 0.73900002
2.71799994 0.78399998 0.29899999
2.61800003 0.764 0.87900001
2.31800008 0.78399998 0.81900001
3.53800011 0.764 0.26899999
3.51799989 0.71399999 0.64899999
2.70799994 0.81400001 0.219
2.56800008 0.79400003 0.27900001
3.82800007 0.81400001 0.23899999
3.70799994 0.74400002 0.71899998
3.90799999 0.37400001 0.65899998
3.15799999 0.75400001 0.58899999
3.24799991 0.77399999 0.23899999
3.99799991 0.33399999 0.64899999
2.84800005 0.77399999 0.829
2.69799995 0.81400001 0.219
3.22799993 0.75400001 0.55900002
3.77800012 0.77399999 0.49900001
4.01800013 0.47400001 0.639
3.30800009 0.764 0.27900001
3.91799998 0.81400001 0.23899999
3.54800010 0.764 0.509
3.64800000 0.77399999 0.33899999
3.81800008 0.78399998 0.509
3.68799996 0.59399998 0.65899998
3.10800004 0.764 0.53899997
3.56800008 0.49399999 0.389
3.06800008 0.75400001 0.59899998
3.84800005 0.74400002 0.67900002
2.39800000 0.72399998 0.889
2.70799994 0.79400003 0.169
3.23799992 0.77399999 0.36899999
2.85800004 0.78399998 0.27900001
3.58800006 0.64399999 0.62900001
2.47799993 0.78399998 0.72899997
3.67799997 0.75400001 0.73900002
3.52800012 0.764 0.26899999
3.57800007 0.55400002 0.449
3.81800008 0.764 0.54900002
2.93799996 0.764 0.56900001
3.67799997 0.79400003 0.289
3.58800006 0.59399998 0.66900003
2.48799992 0.78399998 0.34900001
2.21799994 0.52399999 0.889
2.18799996 0.454 0.92900002
2.28800011 0.78399998 0.64899999
3.62800002 0.55400002 0.65899998
3.66799998 0.77399999 0.51899999
2.40799999 0.77399999 0.86900002
3.92799997 0.824 0.189
3.75799990 0.34400001 0.65899998
2.47799993 0.78399998 0.699
3.62800002 0.79400003 0.27900001
3.60800004 0.704 0.83899999
2.42799997 0.77399999 0.80900002
4.00799990 0.114 0.62900001
3.88800001 0.80400002 0.289
2.88800001 0.77399999 0.79900002
3.09800005 0.764 0.54900002
3.71799994 0.81400001 0.169
3.62800002 0.78399998 0.27900001
3.85800004 0.214 0.65899998
3.59800005 0.71399999 0.67900002
3.73799992 0.764 0.59899998
3.52800012 0.75400001 0.70899999
3.41799998 0.77399999 0.42899999
3.96799994 0.234 0.64899999
3.77800012 0.78399998 0.45899999
2.52800012 0.78399998 0.54900002
3.42799997 0.764 0.48899999
3.66799998 0.40400001 0.65899998
2.62800002 0.80400002 0.26899999
2.72799993 0.77399999 0.829
3.81800008 0.80400002 0.31900001
2.41799998 0.78399998 0.53899997
3.89800000 0.294 0.65899998
3.77800012 0.77399999 0.51899999
3.98799992 0.064 0.62900001
3.57800007 0.27399999 0.65899998
2.20799994 0.354 0.85900003
3.52800012 0.75400001 0.639
2.22799993 0.77399999 0.93900001
2.60800004 0.78399998 0.509
2.39800000 0.78399998 0.42899999
2.54800010 0.78399998 0.65899998
2.47799993 0.78399998 0.70899999
3.53800011 0.74400002 0.71899998
3.17799997 0.78399998 0.29899999
3.56800008 0.62400001 0.52899998
2.69799995 0.78399998 0.73900002
3.67799997 0.81400001 0.119
2.44799995 0.78399998 0.74900001
3.96799994 0.52399999 0.64899999
3.13800001 0.75400001 0.59899998
2.19799995 0.31400001 0.84899998
2.51799989 0.78399998 0.46900001
2.73799992 0.77399999 0.65899998
3.62800002 0.77399999 0.51899999
2.20799994 0.49399999 0.90899998
3.40799999 0.73400003 0.64899999
2.49799991 0.78399998 0.34900001
4.02799988 0.514 0.639
2.69799995 0.78399998 0.68900001
3.61800003 0.59399998 0.65899998
2.70799994 0.78399998 0.67900002
2.48799992 0.78399998 0.31900001
3.49799991 0.75400001 0.66900003
3.93799996 0.824 0.20900001
3.35800004 0.77399999 0.37900001
3.93799996 0.72399998 0.66900003
3.65799999 0.514 0.65899998
2.20799994 0.27399999 0.85900003
2.74799991 0.78399998 0.33899999
2.64800000 0.764 0.90899998
2.81800008 0.77399999 0.76899999
3.85800004 0.80400002 0.329
2.58800006 0.764 0.89899999
3.12800002 0.75400001 0.579
2.53800011 0.764 0.93900001
3.95799994 0.704 0.64899999
3.63800001 0.66399997 0.699
3.37800002 0.77399999 0.31900001
3.97799993 0.134 0.639
3.94799995 0.73400003 0.66900003
2.69799995 0.78399998 0.72899997
3.93799996 0.214 0.65899998
3.36800003 0.764 0.289
3.78800011 0.69400001 0.68900001
2.80800009 0.77399999 0.71899998
3.91799998 0.72399998 0.67900002
3.92799997 0.56400001 0.64899999
3.79800010 0.764 0.51899999
3.84800005 0.80400002 0.36899999
3.51799989 0.764 0.26899999
2.66799998 0.79400003 0.249
2.43799996 0.78399998 0.45899999
2.66799998 0.78399998 0.419
2.18799996 0.764 0.93900001
3.46799994 0.75400001 0.61900002
2.26799989 0.78399998 0.81900001
2.42799997 0.80400002 0.30899999
3.90799999 0.53399998 0.64899999
2.17799997 0.78399998 0.91900003
2.18799996 0.19400001 0.92900002
3.90799999 0.81400001 0.29899999
3.85800004 0.61400002 0.64899999
2.52800012 0.78399998 0.34900001
3.81800008 0.79400003 0.37900001
3.89800000 0.824 0.139
3.97799993 0.33399999 0.64899999
3.55800009 0.574 0.579
3.64800000 0.72399998 0.73900002
3.78800011 0.324 0.65899998
3.50799990 0.75400001 0.64899999
3.84800005 0.55400002 0.64899999
2.36800003 0.72399998 0.92900002
3.84800005 0.34400001 0.65899998
2.78800011 0.77399999 0.639
3.92799997 0.40400001 0.65899998
2.66799998 0.79400003 0.229
3.83800006 0.54400003 0.65899998
2.20799994 0.574 0.83899999
3.02800012 0.764 0.49900001
2.41799998 0.77399999 0.91900003
2.84800005 0.78399998 0.37900001
2.40799999 0.80400002 0.29899999
3.35800004 0.74400002 0.61900002
3.40799999 0.74400002 0.64899999
2.42799997 0.80400002 0.26899999
3.91799998 0.64399999 0.64899999
3.67799997 0.78399998 0.33899999
2.77800012 0.78399998 0.169
3.76799989 0.34400001 0.65899998
3.67799997 0.77399999 0.419
2.56800008 0.78399998 0.59899998
3.16799998 0.73400003 0.64899999
3.46799994 0.77399999 0.419
3.83800006 0.69400001 0.66900003
3.56800008 0.75400001 0.639
3.58800006 0.77399999 0.509
3.61800003 0.73400003 0.73900002
2.70799994 0.78399998 0.71899998
3.94799995 0.53399998 0.64899999
2.64800000 0.80400002 0.259
3.89800000 0.36399999 0.65899998
2.37800002 0.78399998 0.52899998
3.60800004 0.71399999 0.83899999
2.45799994 0.79400003 0.26899999
2.84800005 0.77399999 0.61900002
3.74799991 0.79400003 0.31900001
3.87800002 0.28400001 0.65899998
3.33800006 0.75400001 0.55900002
3.39800000 0.764 0.289
2.76799989 0.78399998 0.30899999
3.73799992 0.244 0.65899998
3.70799994 0.47400001 0.65899998
4.00799990 0.56400001 0.64899999
3.58800006 0.79400003 0.189
3.71799994 0.77399999 0.54900002
3.82800007 0.74400002 0.62900001
3.80800009 0.36399999 0.65899998
2.96799994 0.77399999 0.46900001
3.57800007 0.78399998 0.219
2.21799994 0.65399998 0.889
3.80800009 0.44400001 0.65899998
2.30800009 0.78399998 0.77899998
3.66799998 0.79400003 0.30899999
3.56800008 0.66399997 0.62900001
3.54800010 0.77399999 0.33899999
2.81800008 0.77399999 0.78899997
3.75799990 0.59399998 0.65899998
2.38800001 0.79400003 0.39899999
3.11800003 0.77399999 0.36899999
2.21799994 0.62400001 0.85900003
3.95799994 0.42399999 0.65899998
2.75799990 0.78399998 0.39899999
2.46799994 0.79400003 0.26899999
2.90799999 0.77399999 0.81900001
2.25799990 0.78399998 0.889
2.63800001 0.78399998 0.49900001
2.76799989 0.78399998 0.17900001
3.08800006 0.764 0.509
2.88800001 0.764 0.59899998
3.52800012 0.72399998 0.66900003
3.36800003 0.77399999 0.43900001
3.07800007 0.764 0.48899999
2.87800002 0.78399998 0.419
3.63800001 0.78399998 0.30899999
3.81800008 0.824 0.139
3.81800008 0.484 0.65899998
2.52800012 0.78399998 0.259
2.55800009 0.78399998 0.71899998
3.34800005 0.764 0.48899999
2.41799998 0.77399999 0.85900003
3.56800008 0.80400002 0.169
3.38800001 0.77399999 0.449
3.68799996 0.77399999 0.54900002
3.54800010 0.75400001 0.71899998
2.42799997 0.78399998 0.52899998
3.08800006 0.75400001 0.60900003
2.69799995 0.78399998 0.62900001
2.21799994 0.61400002 0.89899999
3.93799996 0.25400001 0.65899998
3.92799997 0.27399999 0.65899998
2.23799992 0.77399999 0.93900001
4.02799988 0.50400001 0.639
3.73799992 0.74400002 0.699
3.41799998 0.764 0.52899998
3.71799994 0.54400003 0.65899998
2.60800004 0.80400002 0.23899999
3.29800010 0.75400001 0.51899999
2.50799990 0.764 0.949
2.78800011 0.78399998 0.40900001
2.71799994 0.77399999 0.74900001
3.47799993 0.74400002 0.68900001
2.19799995 0.28400001 0.89899999
2.31800008 0.77399999 0.87900001
3.57800007 0.67400002 0.639
3.89800000 0.77399999 0.55900002
2.80800009 0.77399999 0.66900003
2.80800009 0.77399999 0.83899999
2.78800011 0.77399999 0.72899997
2.29800010 0.77399999 0.92900002
3.30800009 0.77399999 0.33899999
2.19799995 0.60399997 0.92900002
3.61800003 0.78399998 0.26899999
2.43799996 0.78399998 0.61900002
2.99799991 0.75400001 0.64899999
2.80800009 0.77399999 0.76899999
3.17799997 0.77399999 0.34900001
2.18799996 0.78399998 0.93900001
3.49799991 0.764 0.48899999
2.64800000 0.78399998 0.68900001
3.62800002 0.79400003 0.249
2.65799999 0.764 0.84899998
2.89800000 0.78399998 0.33899999
2.77800012 0.78399998 0.219
3.78800011 0.79400003 0.329
3.58800006 0.77399999 0.449
3.15799999 0.764 0.43900001
3.58800006 0.414 0.65899998
3.99799991 0.39399999 0.64899999
2.68799996 0.79400003 0.36899999
2.33800006 0.78399998 0.64899999
2.42799997 0.73400003 0.93900001
3.59800005 0.77399999 0.42899999
2.18799996 0.42399999 0.92900002
3.27800012 0.77399999 0.40900001
2.19799995 0.36399999 0.92900002
3.87800002 0.80400002 0.27900001
3.58800006 0.77399999 0.479
4.00799990 0.42399999 0.64899999
3.89800000 0.634 0.64899999
2.89800000 0.77399999 0.66900003
3.02800012 0.75400001 0.70899999
2.20799994 0.46399999 0.90899998
2.46799994 0.764 0.92900002
3.61800003 0.71399999 0.77899998
3.03800011 0.77399999 0.46900001
3.80800009 0.74400002 0.64899999
3.72799993 0.764 0.60900003
2.86800003 0.77399999 0.43900001
3.80800009 0.49399999 0.65899998
3.85800004 0.81400001 0.249
3.60800004 0.71399999 0.68900001
3.62800002 0.46399999 0.65899998
2.40799999 0.72399998 0.89899999
3.56800008 0.764 0.509
2.20799994 0.39399999 0.90899998
2.88800001 0.764 0.55900002
3.91799998 0.78399998 0.55900002
4.01800013 0.74400002 0.62900001
2.45799994 0.78399998 0.33899999
2.30800009 0.77399999 0.93900001
3.58800006 0.764 0.27900001
3.63800001 0.80400002 0.199
3.71799994 0.764 0.579
3.50799990 0.75400001 0.67900002
3.70799994 0.77399999 0.56900001
3.71799994 0.47400001 0.65899998
3.59800005 0.46399999 0.65899998
2.63800001 0.78399998 0.67900002
3.60800004 0.79400003 0.219
2.96799994 0.764 0.72899997
2.21799994 0.52399999 0.89899999
3.81800008 0.80400002 0.249
3.20799994 0.77399999 0.31900001
3.13800001 0.764 0.43900001
3.56800008 0.49399999 0.39899999
2.18799996 0.39399999 0.92900002
3.55800009 0.484 0.34900001
3.40799999 0.75400001 0.60900003
2.82800007 0.77399999 0.60900003
3.47799993 0.73400003 0.65899998
3.57800007 0.59399998 0.509
3.98799992 0.514 0.64899999
2.97799993 0.77399999 0.449
2.21799994 0.384 0.83899999
2.53800011 0.81400001 0.23899999
3.81800008 0.68400002 0.66900003
2.38800001 0.78399998 0.67900002
2.71799994 0.79400003 0.27900001
3.87800002 0.83399999 0.12899999
3.05800009 0.75400001 0.65899998
3.84800005 0.60399997 0.64899999
3.77800012 0.704 0.68900001
3.73799992 0.77399999 0.51899999
3.11800003 0.71399999 0.64899999
3.99799991 0.67400002 0.64899999
3.52800012 0.74400002 0.70899999
2.60800004 0.78399998 0.68900001
2.48799992 0.78399998 0.259
2.61800003 0.764 0.86900002
3.48799992 0.77399999 0.479
2.47799993 0.78399998 0.389
3.03800011 0.764 0.52899998
2.93799996 0.78399998 0.33899999
3.85800004 0.83399999 0.099
2.45799994 0.78399998 0.56900001
2.94799995 0.77399999 0.79900002
2.20799994 0.56400001 0.829
3.79800010 0.44400001 0.65899998
2.37800002 0.77399999 0.78899997
3.55800009 0.56400001 0.55900002
3.61800003 0.75400001 0.68900001
3.66799998 0.634 0.66900003
3.74799991 0.78399998 0.37900001
2.94799995 0.77399999 0.42899999
3.61800003 0.704 0.78899997
3.95799994 0.71399999 0.65899998
3.43799996 0.764 0.52899998
3.18799996 0.75400001 0.53899997
2.18799996 0.214 0.92900002
3.10800004 0.77399999 0.359
3.88800001 0.81400001 0.259
3.52800012 0.73400003 0.67900002
3.99799991 0.294 0.639
2.85800004 0.78399998 0.329
2.45799994 0.73400003 0.87900001
3.23799992 0.75400001 0.48899999
2.19799995 0.40400001 0.91900003
3.42799997 0.74400002 0.259
2.88800001 0.78399998 0.36899999
2.31800008 0.78399998 0.72899997
3.95799994 0.17399999 0.64899999
2.53800011 0.78399998 0.61900002
2.67799997 0.78399998 0.62900001
3.98799992 0.28400001 0.64899999
3.55800009 0.77399999 0.329
2.69799995 0.79400003 0.39899999
3.38800001 0.75400001 0.58899999
2.84800005 0.77399999 0.72899997
3.29800010 0.77399999 0.419
3.89800000 0.60399997 0.64899999
2.70799994 0.80400002 0.20900001
3.58800006 0.704 0.66900003
3.92799997 0.81400001 0.219
2.54800010 0.75400001 0.93900001
2.58800006 0.78399998 0.40900001
3.87800002 0.71399999 0.67900002
3.55800009 0.634 0.58899999
2.35800004 0.77399999 0.90899998
3.68799996 0.77399999 0.49900001
3.76799989 0.53399998 0.65899998
2.56800008 0.764 0.86900002
2.39800000 0.80400002 0.359
2.50799990 0.78399998 0.30899999
3.78800011 0.60399997 0.64899999
3.53800011 0.75400001 0.68900001
2.43799996 0.73400003 0.87900001
2.33800006 0.78399998 0.59899998
2.21799994 0.47400001 0.86900002
3.07800007 0.78399998 0.30899999
3.12800002 0.764 0.43900001
2.53800011 0.764 0.949
2.92799997 0.77399999 0.829
2.51799989 0.74400002 0.89899999
3.12800002 0.77399999 0.419
3.77800012 0.75400001 0.59899998
2.42799997 0.78399998 0.64899999
2.44799995 0.74400002 0.93900001
2.21799994 0.514 0.889
2.76799989 0.78399998 0.449
2.17799997 0.764 0.86900002
2.54800010 0.78399998 0.40900001
3.54800010 0.67400002 0.59899998
3.90799999 0.43399999 0.65899998
3.83800006 0.75400001 0.54900002
3.57800007 0.514 0.40900001
3.86800003 0.75400001 0.59899998
2.65799999 0.78399998 0.60900003
2.61800003 0.78399998 0.579
2.45799994 0.78399998 0.419
2.29800010 0.72399998 0.93900001
3.80800009 0.22400001 0.65899998
2.50799990 0.78399998 0.61900002
2.44799995 0.78399998 0.64899999
2.79800010 0.77399999 0.80900002
2.83800006 0.77399999 0.759
2.94799995 0.77399999 0.81900001
3.68799996 0.73400003 0.73900002
3.80800009 0.71399999 0.699
3.58800006 0.58399999 0.43900001
3.61800003 0.71399999 0.79900002
2.67799997 0.79400003 0.229
2.48799992 0.78399998 0.699
2.26799989 0.72399998 0.93900001
2.41799998 0.80400002 0.249
3.73799992 0.47400001 0.65899998
2.20799994 0.31400001 0.87900001
2.93799996 0.77399999 0.759
3.58800006 0.764 0.61900002
3.94799995 0.62400001 0.64899999
3.99799991 0.324 0.64899999
2.23799992 0.78399998 0.64899999
3.47799993 0.74400002 0.67900002
3.02800012 0.77399999 0.45899999
3.56800008 0.50400001 0.37900001
2.95799994 0.764 0.73900002
3.02800012 0.75400001 0.72899997
2.54800010 0.78399998 0.70899999
3.43799996 0.77399999 0.36899999
2.95799994 0.77399999 0.77899998
3.43799996 0.764 0.289
2.58800006 0.78399998 0.579
3.87800002 0.764 0.54900002
2.29800010 0.75400001 0.93900001
2.48799992 0.74400002 0.87900001
3.09800005 0.78399998 0.329
2.93799996 0.764 0.61900002
2.41799998 0.78399998 0.58899999
3.98799992 0.60399997 0.64899999
3.67799997 0.764 0.55900002
2.44799995 0.73400003 0.92900002
2.31800008 0.78399998 0.68900001
3.55800009 0.64399999 0.59899998
3.94799995 0.47400001 0.65899998
2.20799994 0.634 0.92900002
3.41799998 0.72399998 0.62900001
3.75799990 0.67400002 0.67900002
3.60800004 0.72399998 0.79900002
2.53800011 0.78399998 0.46900001
3.89800000 0.384 0.65899998
2.88800001 0.77399999 0.829
3.18799996 0.764 0.42899999
2.20799994 0.77399999 0.64899999
2.71799994 0.78399998 0.58899999
2.50799990 0.77399999 0.77899998
3.22799993 0.764 0.45899999
3.34800005 0.77399999 0.419
3.57800007 0.764 0.61900002
2.95799994 0.764 0.72899997
3.55800009 0.77399999 0.33899999
3.75799990 0.54400003 0.65899998
2.78800011 0.77399999 0.53899997
3.12800002 0.73400003 0.64899999
3.65799999 0.764 0.60900003
3.42799997 0.764 0.53899997
3.49799991 0.704 0.61900002
3.59800005 0.75400001 0.71899998
2.53800011 0.78399998 0.389
3.61800003 0.40400001 0.65899998
3.91799998 0.62400001 0.64899999
3.72799993 0.40400001 0.65899998
2.38800001 0.78399998 0.74900001
3.17799997 0.77399999 0.33899999
2.63800001 0.78399998 0.359
3.44799995 0.74400002 0.65899998
2.40799999 0.77399999 0.84899998
3.65799999 0.50400001 0.65899998
2.84800005 0.78399998 0.40900001
2.48799992 0.78399998 0.389
3.00799990 0.77399999 0.479
2.60800004 0.764 0.91900003
2.90799999 0.764 0.60900003
3.71799994 0.77399999 0.479
3.37800002 0.77399999 0.42899999
2.38800001 0.77399999 0.84899998
2.46799994 0.73400003 0.87900001
3.56800008 0.69400001 0.639
3.60800004 0.77399999 0.43900001
3.56800008 0.53399998 0.389
3.71799994 0.72399998 0.72899997
4.03800011 0.204 0.61900002
3.77800012 0.634 0.64899999
3.64800000 0.514 0.65899998
3.50799990 0.77399999 0.359
3.87800002 0.80400002 0.26899999
2.20799994 0.59399998 0.91900003
3.03800011 0.78399998 0.359
3.90799999 0.81400001 0.249
2.47799993 0.79400003 0.249
3.38800001 0.75400001 0.26899999
2.45799994 0.78399998 0.60900003
2.43799996 0.78399998 0.579
2.52800012 0.77399999 0.30899999
2.44799995 0.764 0.91900003
3.73799992 0.52399999 0.65899998
2.18799996 0.27399999 0.92900002
2.71799994 0.764 0.89899999
2.63800001 0.80400002 0.249
2.36800003 0.77399999 0.85900003
2.92799997 0.77399999 0.76899999
2.52800012 0.80400002 0.249
2.20799994 0.52399999 0.91900003
3.58800006 0.77399999 0.26899999
3.75799990 0.80400002 0.249
3.69799995 0.64399999 0.66900003
2.20799994 0.34400001 0.90899998
2.87800002 0.77399999 0.62900001
3.60800004 0.36399999 0.65899998
4.01800013 0.46399999 0.639
2.32800007 0.78399998 0.59899998
3.94799995 0.294 0.65899998
3.99799991 0.64399999 0.64899999
3.67799997 0.80400002 0.229
3.29800010 0.77399999 0.34900001
3.71799994 0.31400001 0.65899998
3.56800008 0.58399999 0.52899998
2.44799995 0.764 0.93900001
2.88800001 0.77399999 0.74900001
2.31800008 0.78399998 0.76899999
2.91799998 0.764 0.59899998
2.58800006 0.77399999 0.80900002
2.37800002 0.78399998 0.68900001
3.60800004 0.77399999 0.48899999
3.05800009 0.75400001 0.64899999
3.88800001 0.73400003 0.68900001
3.57800007 0.574 0.46900001
2.50799990 0.78399998 0.26899999
2.54800010 0.78399998 0.58899999
3.49799991 0.56400001 0.58899999
2.48799992 0.78399998 0.72899997
3.77800012 0.74400002 0.68900001
2.21799994 0.78399998 0.83899999
2.46799994 0.78399998 0.479
2.99799991 0.764 0.71899998
2.69799995 0.78399998 0.42899999
2.42799997 0.73400003 0.91900003
2.47799993 0.78399998 0.66900003
2.91799998 0.764 0.54900002
3.79800010 0.67400002 0.66900003
3.17799997 0.74400002 0.639
2.91799998 0.824 0.199
2.95799994 0.77399999 0.39899999
2.92799997 0.764 0.639
2.32800007 0.77399999 0.89899999
2.66799998 0.78399998 0.56900001
2.63800001 0.78399998 0.61900002
3.43799996 0.77399999 0.389
3.42799997 0.764 0.49900001
3.71799994 0.79400003 0.289
2.78800011 0.77399999 0.68900001
3.89800000 0.33399999 0.65899998
4.02799988 0.75400001 0.62900001
3.43799996 0.764 0.58899999
2.18799996 0.77399999 0.85900003
3.26799989 0.764 0.249
2.50799990 0.74400002 0.92900002
2.21799994 0.61400002 0.90899998
2.59800005 0.78399998 0.54900002
3.33800006 0.75400001 0.259
3.45799994 0.75400001 0.61900002
2.39800000 0.77399999 0.829
3.50799990 0.764 0.59899998
3.13800001 0.75400001 0.54900002
3.06800008 0.77399999 0.43900001
3.57800007 0.74400002 0.73900002
2.76799989 0.77399999 0.60900003
3.29800010 0.74400002 0.579
3.72799993 0.80400002 0.259
3.53800011 0.764 0.509
2.60800004 0.77399999 0.359
2.77800012 0.81400001 0.219
3.55800009 0.58399999 0.64899999
3.67799997 0.77399999 0.389
2.97799993 0.764 0.53899997
2.21799994 0.77399999 0.81900001
3.54800010 0.75400001 0.639
2.95799994 0.78399998 0.389
3.94799995 0.64399999 0.64899999
2.82800007 0.77399999 0.699
3.64800000 0.77399999 0.37900001
3.75799990 0.484 0.65899998
2.77800012 0.78399998 0.36899999
3.88800001 0.81400001 0.199
3.57800007 0.77399999 0.259
3.04800010 0.77399999 0.389
3.74799991 0.78399998 0.43900001
3.77800012 0.73400003 0.70899999
3.55800009 0.764 0.639
3.60800004 0.33399999 0.65899998
3.03800011 0.78399998 0.34900001
3.90799999 0.81400001 0.229
3.73799992 0.264 0.65899998
2.60800004 0.764 0.86900002
2.75799990 0.77399999 0.72899997
2.90799999 0.77399999 0.829
3.86800003 0.78399998 0.53899997
