# .PCD v0.7 - Point Cloud Data file format
VERSION 0.7
FIELDS x y z
SIZE 4 4 4
TYPE F F F
COUNT 1 1 1
WIDTH 1500
HEIGHT 1
VIEWPOINT 0 0 0 1 0 0 0
POINTS 4196
DATA ascii
-1.28742395 0.56158325 0.003490448
-1.2183674999999998 0.55259205 0.008632540499999999
-1.17847265 0.5481475 0.0063711405
-1.32964015 0.55051795 0.0046771765
-1.37441665 0.5238638999999999 0.0039339065500000004
-1.2781459000000002 0.5116231 0.013400315999999999
-1.23347105 0.5062531499999999 0.015477836
-1.17395135 0.49996666500000003 0.011771321500000001
-1.3248622500000002 0.5015143 0.009986757999999998
-1.39807225 0.47858648 0.00285089015
-1.2557173 0.461622255 0.015117526000000001
-1.2124774 0.456822665 0.016012191999999998
-1.15406125 0.45105122 0.011511147
-1.3487425499999999 0.45662768 0.0084343555
-1.3014835 0.45111321000000004 0.0123634935
-1.3973582000000002 0.43032974 0.004080832
-1.2339446 0.41210383000000006 0.0163266065
-1.171712 0.40579431 0.015526711999999998
-1.13347205 0.402254985 0.012114643999999999
-1.3487467 0.408873185 0.0090044735
-1.3018587000000001 0.40373169 0.012600720000000001
-1.4216327500000001 0.384914505 0.00247329475
-1.1915022 0.36093003999999995 0.0173690915
-1.15102975 0.35712122999999996 0.016141534
-1.09413175 0.35212956500000003 0.011003613499999999
-1.3489502500000001 0.36124490000000004 0.009377599
-1.3023641499999998 0.35645231499999996 0.012707114
-1.25700025 0.35184920000000003 0.015331506500000001
-1.0608389999999999 0.334361645 0.00328719615
-1.4210930499999999 0.33674277500000005 0.00351190565
-1.1707219500000001 0.31234972 0.017984807499999998
-1.1301154 0.30870378 0.0171405075
-1.32603315 0.31148106 0.011197328500000001
-1.2803483 0.30711487 0.0139164925
-1.2356648000000001 0.30288644 0.016129613
-1.05282875 0.28675616000000004 0.0127375125
-1.3729885 0.30013874 0.007919669
-1.0003963 0.267619415 0.0044372678
-1.12950595 0.26232742 0.018531084
-1.4449646999999999 0.27494982 0.00253260135
-1.30386055 0.26219163 0.012435913
-1.2588951000000002 0.25820084 0.0147110225
-1.19307815 0.25241565 0.0173786285
-1.01146965 0.2372979 0.0147902965
-0.95638395 0.23307308499999999 0.0097599625
-1.3969662999999999 0.254666545 0.006429255
-1.3501325 0.25054138 0.0095531345
-1.06870385 0.22655546499999998 0.0185254215
-0.89817375 0.198225005 0.0096961855
1.05403825 0.041000694 0.0035980344
1.0887442 0.034540407499999995 0.04997313
1.14043235 0.0313194095 0.037867129
1.1555014 0.032275915 0.0102975965
-1.4447871 0.226914695 0.00320255755
-1.2602248999999999 0.21152418 0.014015138
-1.1944436999999999 0.2061294 0.0166732075
-1.15151195 0.202632955 0.0180852415
-0.9512314 0.18694758499999997 0.0164166095
-0.8592218 0.180149375 0.0102713705
0.91954755 0.0391640885 0.01758188
0.9657245000000001 0.032723695 0.05445361
1.0145256 0.0280143505 0.065754055
1.1090108 0.0188964605 0.08763372999999999
1.19595925 0.0150823595 0.047390759
1.20692215 0.017705857999999998 0.00136077405
-1.3973281000000002 0.20703599 0.0066143275
-1.35089455 0.20325422499999998 0.0093773005
-1.30537955 0.19957277999999998 0.011735856499999999
-1.1098918500000001 0.18398091 0.018839836000000002
-1.0482499 0.179172715 0.0195911525
-1.008372 0.17611730999999997 0.0193190575
-0.805088 0.161353685 0.006773472
0.7568562 0.041294581999999996 0.0014060735499999998
0.7989238 0.034488775 0.050365925
0.83802285 0.030837953 0.059104264999999996
0.8891571500000001 0.0260608645 0.07056594000000001
0.9759674 0.01795087 0.09002477
1.14431975 0.0041390769 0.101424455
-0.91133805 0.153803525 0.0178182125
-0.7498035000000001 0.142501145 0.005502999
0.61023355 0.039393157000000005 0.0158408285
0.65053015 0.03383372 0.052078070000000004
0.69177255 0.0301077215 0.060989855
0.74569015 0.0252337755 0.07268071
0.82431695 0.0181259775 0.08973241
1.0160262 0.0020601228 0.11316746500000001
1.19633095 -0.010563098 0.09952932499999999
1.2430419 -0.00895245 0.0259697435
-1.46854015 0.180837215 0.0022366643000000003
-1.21792315 0.161594005 0.0147634745
-1.17470295 0.15832014500000002 0.0162529945
-0.85350365 0.134619475 0.017874837
-0.70753725 0.12429669500000001 0.011894404999999999
-0.65921695 0.12132130499999999 0.00328570605
0.45815557 0.0374004245 0.031014681000000002
0.49530238 0.0331485645 0.053868889999999996
0.53884835 0.029343497 0.06296843499999999
0.5957493 0.0243693775 0.074890555
0.6650549 0.018309951 0.089425145
0.8674346500000001 0.0018314831 0.113630595
0.915408 -0.00202208755 0.11857927000000001
1.06551095 -0.014081802000000001 0.13409822999999998
1.2412914499999999 -0.0226666035 0.06918907
-1.4213129999999998 0.16127467 0.0051990149999999995
-1.37487115 0.15778641999999998 0.0077456235
-1.3292929500000001 0.15438229 0.009943247
-1.28444105 0.1510451 0.011906326
-1.09099895 0.13680219500000002 0.018012523500000002
-1.04964765 0.133783295 0.0189116595
-1.008853 0.1308142 0.0196558235
-0.9489771499999999 0.126494355 0.020150840500000003
-0.7409847 0.11180766 0.016850233
-0.5975941 0.101807715 0.012608468500000001
-0.54537655 0.09819138999999999 0.010666549
-0.49917549 0.095457395 0.00162780285
0.269304665 0.039619431000000004 0.014182329
0.31723112 0.033742562000000004 0.052608550000000004
0.36353170999999995 0.029831640500000003 0.061959625
0.42399049 0.024723988000000002 0.07418245000000001
0.49759418 0.018503368 0.089102385
0.72424395 0.00059809535 0.115392805
0.7746003499999999 -0.00332914295 0.120433865
0.9665078500000001 -0.0181885995 0.13795972
1.1210782 -0.0295329095 0.142264365
-0.9100196 0.108790585 0.020262599000000003
-0.7950714000000001 0.10078485999999999 0.019986629500000002
-0.45506373 0.07739801 0.0143265725
-0.404064355 0.07390227 0.0132766365
-0.35375342 0.07045723500000001 0.012182891500000001
-0.30408113999999997 0.067056415 0.0110954045
-0.25569916000000004 0.06380439 0.0090375545
0.10239631 0.037548654 0.029900669999999997
0.14593467000000002 0.033019893 0.054503974999999996
0.194926115 0.0290217625 0.06406247500000001
0.24302184500000001 0.025096740500000003 0.073445735
0.321284535 0.018706955 0.08876234499999999
0.36677316000000004 0.0150314345 0.097030995
0.54768785 0.00133924185 0.114628675
0.5878442500000001 -0.0016995333 0.118528305
0.81646755 -0.018875133000000002 0.138664245
1.16290065 -0.043270699499999996 0.14225453000000002
1.22038075 -0.045965276500000006 0.120509565
1.2819486999999998 -0.04417112100000001 0.019943714
-1.4685145 0.132856965 0.0027424097
-1.177139 0.11238068500000001 0.014449954000000001
-0.7015604 0.07971946 0.0203487275
-0.6467348500000001 0.0760106 0.0200489165
-0.21146253 0.04745245000000001 0.00224351885
-0.10844022 0.039868951 0.012356638999999999
-0.071182995 0.0353769215 0.046426356
-0.033862591 0.032261312 0.056494475
0.018031895 0.028172098 0.06626844500000001
0.068954825 0.024159495 0.075859425
0.13540536 0.018921643499999998 0.08840352500000001
0.41781395499999996 -0.00204121695 0.119163095
0.64627575 -0.0186945685 0.138742925
0.9136514499999999 -0.037682038 0.152923165
1.0161464 -0.044960305000000006 0.15835345
-1.3989451499999999 0.11210736 0.006119609
-1.3535234500000002 0.10900408 0.007941127000000001
-1.3087541 0.10595303 0.009597241999999999
-1.2428972 0.101484955 0.011663437
-1.03235065 0.08728507999999999 0.0167149305
-0.9717405 0.08322406500000001 0.0176787375
-0.8535123 0.07532101000000001 0.019219517499999998
-0.61035605 0.059165285 0.020585358
-0.55680705 0.055641235000000004 0.020265281000000003
-0.50424485 0.052201449999999996 0.019596218999999998
-0.260100515 0.0342996045 0.05180955
-0.20434633000000002 0.030060187 0.061940850000000006
-0.14966905 0.025902726 0.071876345
-0.060843974999999995 0.019148309000000002 0.088025035
0.163494795 0.0029533729 0.112950505
0.223878025 -0.0013406202000000001 0.11846631999999999
0.268373785 -0.004504732799999999 0.12252867
0.38383006999999997 -0.012714118 0.13305545
0.46660452999999996 -0.018500871999999998 0.138789715
0.7494762500000001 -0.0380040145 0.15338421
0.8694910499999999 -0.0462774745 0.159554185
1.0729091 -0.060206575 0.16828864999999998
1.1157902499999999 -0.063066485 0.168727935
1.26860695 -0.070020295 0.11086464000000001
1.3150933500000002 -0.069064835 0.03690511
-1.13717735 0.0790748 0.013501048
-1.0747233 0.07499254999999999 0.014781058
-0.79651115 0.056864915 0.0193691255
-0.75834395 0.054379555 0.019969344
-0.441362115 0.032072589 0.057328344999999996
-0.40201664 0.0291876865 0.064221025
-0.34397289 0.024931729 0.074390175
-0.305911005 0.0221409275 0.081058445
-0.249746295 0.018022787000000002 0.090898275
-0.19586503500000002 0.014151968 0.098784565
-0.111736955 0.008359086 0.10622263
0.0023752451 0.0005015172 0.11631191
0.05002141 -0.0027793273499999997 0.12052476499999999
0.31931296 -0.021151677 0.141019525
0.5763541 -0.038341861 0.153849125
0.6908143999999999 -0.045996178 0.15955299
0.96324945 -0.064054875 0.17002224999999999
1.3139385000000001 -0.082313345 0.08656143999999999
-1.3237378 0.0408416985 0.72776405
-1.28437785 0.038437173 0.7266307
-1.2372032 0.0375432895 0.68420945
-1.4920026 0.086487455 0.0020980835
-1.4456156 0.083501375 0.00390827655
-0.9334221500000001 0.05085595 0.017163157499999998
-0.7020055999999999 0.036211312 0.020982623000000002
-0.6467086 0.0327397885 0.021320283500000002
-0.5207552 0.022629928 0.06758541
-0.44846758 0.016837679 0.09393006500000001
-0.14928952 -0.0031792 0.121260585
0.09072125 -0.019068066 0.139687955
0.420910715 -0.040473994 0.155685245
0.5147591 -0.046556331 0.16019582500000001
0.79060935 -0.064283405 0.170336665
1.16788685 -0.08789364 0.171092155
1.2158692 -0.09013353 0.15543073500000001
1.3670653 -0.094493125 0.05034238
1.3897884 -0.09382235 0.007160306
-1.4190748499999999 0.035006851 0.6868460999999999
-1.3748222500000002 0.032242276 0.6886142500000001
-1.3217011 0.029334817000000003 0.6816768500000001
-1.2807601499999999 0.027581378999999996 0.66559075
-1.235995 0.026189815499999998 0.6364172499999999
-1.2169325500000001 0.027337 0.58565555
-1.3554310999999999 0.06201312 0.0066420435
-1.3109525999999998 0.05925253 0.008019805000000001
-1.245279 0.055183025 0.0099110605
-1.20215565 0.052514335 0.011076927
-0.8742270000000001 0.032284296999999997 0.018529296
-0.6289705499999999 0.015247278000000001 0.06612867
-0.5783665 0.0113432295 0.084517
-0.39579779000000004 -0.00130092725 0.11910826
-0.36003679 -0.00360440465 0.122067035
-0.307119935 -0.0070129895000000005 0.12644559
-0.22080511 -0.012572855 0.13358772
-0.105543435 -0.019881259499999998 0.14056772
-0.057807865 -0.022878311499999998 0.14280319
0.18558412999999999 -0.038158409500000004 0.154177545
0.21475166 -0.039989799500000006 0.155546365
0.272284595 -0.0436019525 0.15824079500000002
0.37047431 -0.049766078500000005 0.162825585
0.6205301 -0.06530354000000001 0.170963705
1.0206751 -0.09001616500000001 0.18066495500000002
1.0643373999999999 -0.09271279 0.18172502499999998
-1.4192670499999998 0.023999809999999996 0.6219673
-1.37507705 0.021329224 0.62363565
-1.3368878 0.019196606999999997 0.62093765
-1.27646955 0.016384218 0.6034070500000001
-1.1990547 0.014821477000000001 0.5327499
-1.40043915 0.049001612 0.0053864715
-1.1595711 0.03453359 0.012386441
-1.09653085 0.030757226000000002 0.0139781835
-1.05510505 0.028278138499999998 0.014964341999999999
-0.99384815 0.024616234 0.016330182500000002
-0.7462659500000001 0.0083036535 0.0575614
-0.68772795 0.0037666410000000003 0.08337080499999999
-0.55600465 -0.0052340139999999995 0.112904905
-0.494087635 -0.0093895195 0.125010015
-0.0045967102000000004 -0.039476901499999995 0.15542537
0.04157871 -0.0422821755 0.15751600500000001
0.46755284 -0.0679693 0.17226964
0.8402782 -0.09026816 0.18099308000000003
0.89813655 -0.093729755 0.18235028
1.26291335 -0.113496855 0.14232993
1.31756245 -0.11550333499999998 0.11378318
1.41481595 -0.11833524499999999 0.0455346705
1.43824175 -0.11802878 0.005749762
-1.4188722 0.012626871500000001 0.5557114
-1.3730234 0.009897165 0.55865555
-1.33388995 0.007748194 0.5565664
-1.2862733000000002 0.00549566 0.5448091
-1.1950603 0.0026850775 0.48402428499999994
-1.1795455000000001 0.0040639937 0.42645036999999997
-1.4689796999999998 0.037202835000000004 0.00326156615
-0.9536487 0.007266495499999999 0.017400384
-0.81418305 -0.0026011467 0.06614387000000001
-0.75633375 -0.0068271905 0.08974582
-0.64347865 -0.0142608585 0.115168395
-0.60097785 -0.0170050935 0.12333691000000001
-0.461938085 -0.025768634000000002 0.144614575
-0.17275423 -0.042788479500000004 0.158162715
0.32107814999999995 -0.071563685 0.17394483
0.6735207 -0.091970635 0.18191158999999998
0.7224692500000001 -0.094804725 0.183015765
1.11792205 -0.117498485 0.186777115
1.3629371000000001 -0.127775305 0.09286225000000001
-1.44422175 0.0024805404 0.48398286
-1.3935085999999999 -0.0005594827 0.490628185
-1.3499853000000002 -0.0030056759500000003 0.49184352
-1.29725665 -0.005623512 0.48378736
-1.25387015 -0.007452257 0.46819269500000005
-1.16505415 -0.0093357265 0.38500725999999996
-1.16972475 -0.006892569499999999 0.324777365
-1.311107 0.012387539999999999 0.008468628
-1.24545545 0.008694511 0.0103881955
-1.2023309 0.006270855499999999 0.011589527
-0.88819145 -0.013150628499999999 0.069018305
-0.71213185 -0.024725944 0.12023568
-0.491040945 -0.038070027 0.151703955
-0.400492995 -0.043326877 0.15885353000000002
-0.34884915000000005 -0.0462558495 0.16102195
-0.29797002499999997 -0.049141422 0.16315817999999999
-0.247838795 -0.05198462 0.16526311500000002
-0.056149065 -0.062765125 0.17080128
0.09499550000000001 -0.07122634 0.17409086000000001
0.39151579 -0.08782707000000001 0.18058002
0.5236003 -0.09522119500000001 0.18345237
0.8033454499999999 -0.130171645 0.7211767
0.5749081 -0.098093375 0.18456727499999998
0.80948835 -0.114775 0.28750032
0.94406255 -0.11859175 0.187993945
-1.44373565 -0.009618271 0.41389018499999997
-1.39166685 -0.0126576235 0.42172104
-1.3472718000000001 -0.0150891765 0.42359054
-1.30975395 -0.0169703925 0.419948695
-1.24904245 -0.019574836 0.40083110499999997
-1.13987265 -0.0212784855 0.276860295
-1.3780156 0.000421740115 0.006521344
-1.1386441999999999 -0.012584366 0.013460219
-1.09674605 -0.014856141 0.014532804500000001
-1.05532795 -0.0171002745 0.015544593499999999
-0.93758075 -0.025490932 0.078884365
-0.80881565 -0.03359545 0.11593759000000001
-0.7415029500000001 -0.0376274435 0.12915253499999998
-0.5589688 -0.048197005 0.154039265
-0.130993725 -0.07172201 0.174601375
0.17068937499999998 -0.0880339 0.1809445
0.21367669 -0.09035846 0.181855855
0.27011304999999997 -0.09340958499999999 0.18303066499999998
0.6257325499999999 -0.11254176499999999 0.187620225
0.78311935 -0.120971465 0.18851906000000002
1.16831065 -0.14136508 0.18358171
1.2168735499999999 -0.143554435 0.17147988
1.4625162 -0.152599365 0.0492435695
-1.4432296 -0.022071004 0.341753365
-1.3897601000000002 -0.025102496000000002 0.35085320500000006
-1.3444813999999998 -0.027513914 0.353409945
-1.3061279000000001 -0.0293965265 0.35028249
-1.2584549 -0.031460356 0.33725798
-1.1294362 -0.0348285025 0.22865981000000002
-1.1189434 -0.033877734 0.17931491
-1.1391157 -0.0309948625 0.11835009
-1.02259905 -0.035607964 0.07225603
-0.8863723499999999 -0.0439007765 0.114274025
-0.457909405 -0.06776138999999999 0.17292708
-0.00404566525 -0.091449955 0.18257289999999998
0.041180849 -0.093809255 0.18349409
0.44723287 -0.11488311 0.18817812
0.6255224500000001 -0.13367704 0.5058455500000001
0.7998591500000001 -0.147568005 0.66806405
0.8875210499999999 -0.13765242 0.190564395
0.98836415 -0.142867545 0.19111335499999998
1.04293995 -0.14568995499999998 0.19141048
-1.4420771499999998 -0.0349397585 0.26802957
-1.3879803 -0.037895031499999995 0.277768075
-1.34161145 -0.0402949005 0.281217695
-1.30239905 -0.042174905500000005 0.278642475
-1.2536466 -0.044257156500000006 0.266058445
-1.2111306 -0.045879539000000004 0.247972905
-1.10184165 -0.04826393 0.13583213
-1.0792938 -0.0477576255 0.076001285
-0.92190415 -0.05672021 0.11773288
0.213727355 -0.146134395 1.3284522500000002
0.265901985 -0.147485995 1.2827568999999999
0.312752575 -0.1491197 1.2571625499999999
-0.33469677000000003 -0.08765634 0.181441605
-0.285024195 -0.09015287999999999 0.182406605
-0.23604616500000003 -0.09261446 0.18335551
-0.17180592 -0.09584266500000001 0.18458396
0.31365156 -0.120106565 0.189038215
0.5081202 -0.13848017 0.50892265
0.54107085 -0.14058831 0.5261785
0.66305505 -0.13753239 0.190851985
0.7237315 -0.14055854499999998 0.19116819000000002
0.8080632999999999 -0.148980145 0.34656792999999997
0.8183944 -0.145279635 0.19165635
1.2629731 -0.166401675 0.155350565
1.3182381 -0.168500805 0.13148278
1.3638761499999998 -0.17020359499999999 0.11064618999999999
1.41839445 -0.172234775 0.08564502
-1.4733049500000002 -0.0464089585 0.182659625
-1.4125213 -0.0496956335 0.19813776000000002
-1.3860929 -0.05106922 0.20257413500000002
-1.31778715 -0.054440720000000005 0.206655265
-1.2810736999999999 -0.056079475000000004 0.201678275
-1.2336692 -0.058005005 0.187378525
0.14342189 -0.15250645499999999 1.3667828000000002
0.16274959 -0.15271410500000002 1.33707255
0.19936442499999998 -0.153249295 1.28665445
0.248957125 -0.15439930500000001 1.23594595
0.293271245 -0.15579 1.2056507
-0.398029985 -0.098005495 0.18578917
-0.09185314 -0.112743935 0.18861264
-0.061203835 -0.11421632 0.18877119
0.088073315 -0.12138646 0.18950164500000002
0.5127026 -0.1417832 0.191610755
0.5636646 -0.14423091000000002 0.19185573
0.9541499 -0.16292223500000003 0.19109308500000002
1.0950001500000002 -0.169644805 0.190012455
1.5136237499999998 -0.18541753500000002 0.0127980115
-1.47337645 -0.060059335000000005 0.10311514000000001
-1.41181855 -0.06324395499999999 0.11951416499999999
-1.3599995 -0.06580394 0.12760728500000001
-1.2954690999999998 -0.06879275500000001 0.12827575000000002
-1.25981955 -0.0703053 0.12209445
-1.1980003 -0.07270932 0.101031065
0.10293141 -0.15988461499999998 1.3867959499999998
0.126259475 -0.15989717 1.33656785
0.15843510500000002 -0.160204505 1.28099545
0.19004047 -0.16071234 1.23614105
0.23857534 -0.16179977 1.1817974
0.29047786999999997 -0.16340557499999997 1.1446136
0.38623333000000004 -0.16919076500000002 1.20941385
0.17512709 -0.137922235 0.19155889499999998
0.21754160500000003 -0.13988165 0.191759465
0.44199928499999996 -0.157250335 0.5236131
0.5993317 -0.16505977000000002 0.54993005
0.6447667 -0.16712527500000002 0.5485636
0.6949780999999999 -0.16914431000000002 0.53459525
0.8010111 -0.175946225 0.62505455
0.77029005 -0.16534645 0.19103229
1.4629441500000002 -0.1946738 0.068055985
-1.5028983500000002 -0.072710535 0.0143384935
-1.43888025 -0.07588138999999999 0.032864213
-1.4067659 -0.07747954 0.0425711275
-1.3478868999999998 -0.08035803 0.057525335000000004
-1.2989709 -0.08263347500000001 0.06355673
-1.2435850499999999 -0.0853223 0.07658273
-1.15972785 -0.08943055 0.09835571
-1.10781045 -0.09193707500000001 0.10979681999999999
0.149054825 -0.16792629 1.23076915
0.18013954 -0.16844442 1.1834483
0.22189677000000002 -0.169376805 1.13291355
0.26379451000000004 -0.17056288 1.0960193
0.39084524000000004 -0.17729583999999998 1.1570467
0.00060275195 -0.142517325 0.19239008500000002
0.0452025235 -0.144495655 0.19257754
0.5006321 -0.17101325 0.54267915
0.7400907499999999 -0.18150348 0.53643105
0.6369172 -0.1706603 0.19052088500000003
0.80532685 -0.181921905 0.40024489
1.02893955 -0.18796837 0.18769711500000003
1.14475645 -0.19301647500000002 0.18326372000000002
1.1944588999999999 -0.19506434 0.17482698000000002
-1.05141135 -0.10946706 0.12684583500000002
0.111991465 -0.17555995000000002 1.2304659
0.13406694 -0.17583466999999997 1.18663325
0.164735315 -0.176388265 1.13711355
0.20524502 -0.177289845 1.08296735
0.23875639 -0.17819829499999998 1.0489306
0.39512813 -0.18564484999999997 1.1022347000000001
-0.23058056999999998 -0.14532599499999999 0.193057955
-0.182965545 -0.147351295 0.193273425
0.39205535999999996 -0.17677869499999999 0.5245008999999999
0.5506262 -0.18421029500000002 0.57063995
0.68873295 -0.190087275 0.57143925
0.81496925 -0.18964689 0.18777549500000001
0.87248265 -0.192083215 0.18737405499999998
1.38932585 -0.21272016500000002 0.100634695
1.5043990500000002 -0.21652737500000002 0.029238462500000003
-1.3034472 -0.113372375 0.08023858
-1.2499966999999998 -0.11567918499999999 0.09130329
-1.19556575 -0.11804629 0.104058685
-0.9995576500000001 -0.12644956000000002 0.14000057999999999
-0.9541496500000001 -0.1283779 0.146808325
0.18009722 -0.18819265000000002 1.2791073499999999
0.221951155 -0.18998302500000003 1.2864502
0.264561325 -0.1916644 1.2822501499999999
0.31456992000000006 -0.19343487999999998 1.26056315
0.399378835 -0.194276385 1.0452378
0.370933565 -0.19222784999999998 0.9715253
-0.121473225 -0.16278274499999998 0.19261806999999997
-0.075648725 -0.16464188500000002 0.192309915
0.101925435 -0.171846265 0.191114545
0.44771060500000004 -0.19034628 0.5581975
0.59392675 -0.19664744 0.5877024
0.7413095000000001 -0.20237537 0.5659276
0.80188425 -0.20501122 0.58024915
0.7637339999999999 -0.20205792 0.46438247
0.67135365 -0.19494854 0.18728256
0.7315519500000001 -0.197390915 0.18688202
1.1117492 -0.21278207999999998 0.18152684
1.24021055 -0.217700025 0.15638590000000002
1.28771065 -0.21946364999999998 0.142555835
1.34306015 -0.22144241499999998 0.12013942
-1.46545975 -0.121919865 0.0290489195
-1.4242774 -0.12368393999999999 0.0471553205
-1.38477505 -0.12537133 0.06400585
-1.06802105 -0.13828026 0.13073026999999998
-0.9076327 -0.14473634000000002 0.15567362499999998
0.19928753500000002 -0.197527895 1.23393595
0.24785042000000002 -0.19943064 1.2357603
0.317425875 -0.20188558999999998 1.20854585
0.380770265 -0.20170549 0.9180175
0.34989655000000003 -0.197070355 0.5399361500000001
0.6425133500000001 -0.20892896 0.5942436999999999
0.7621304499999999 -0.21284353 0.51377475
0.8070226 -0.21387756000000002 0.435697435
0.91458015 -0.21573716999999998 0.18065393
0.9701411999999999 -0.217886325 0.17968564999999997
-1.1389198999999999 -0.15030958 0.12022972
-0.8423361 -0.16156410999999998 0.16513884
-0.8014098000000001 -0.163103455 0.16907692
0.21650523000000002 -0.20696461 1.18490575
0.34140169499999995 -0.21130135500000002 1.13752005
0.390199125 -0.21143364 0.8618357999999999
-0.0333340465 -0.19166246 0.18869400000000003
0.026165247000000003 -0.19386332499999998 0.18832355499999998
0.305396765 -0.206278505 0.53008765
0.39074793500000005 -0.20966679 0.56761385
0.49858569999999997 -0.213773435 0.58633
0.54979025 -0.21571449999999998 0.59375435
0.76308295 -0.2210908 0.178661645
1.44062935 -0.245502145 0.0673002
-1.19301885 -0.1632349 0.10719657
-1.02095695 -0.16939133499999998 0.13888984999999998
-0.9757715499999999 -0.17100198 0.145224035
-0.74299665 -0.17928408499999998 0.17286300500000001
0.071252135 -0.21071390999999998 1.0725688999999998
0.119855255 -0.212508815 1.099765
0.176968275 -0.21459315 1.1236125
0.22022754 -0.21614276000000002 1.1321614500000001
0.26397571000000003 -0.217669385 1.1275837
0.31584069 -0.21942448 1.10426365
0.36220431499999994 -0.220915955 1.0581255
0.396527945 -0.221329795 0.7985251999999999
0.37478565999999996 -0.220400075 0.7449574999999999
0.80378575 -0.234870185 0.53669125
1.0210576 -0.24139859 0.16989976
1.1375012 -0.24548562 0.16544044000000002
1.1876986999999999 -0.24723038 0.15791535499999998
-1.39694275 -0.171418545 0.0321501495
-1.3466534 -0.17309995500000003 0.059755145
-1.28456295 -0.17517511 0.07874965499999999
-0.9114057 -0.1876447 0.152394475
-0.84661605 -0.189809485 0.160985885
-0.7052794 -0.19453171500000002 0.17468184
-0.6484255 -0.196431205 0.178103745
0.07799684999999999 -0.22074152 1.02068215
0.1259616 -0.22234522 1.0477184
0.16406089 -0.22361882 1.0637434
0.22350937 -0.22560544500000002 1.0769661
0.267103315 -0.227061455 1.07158675
0.387022495 -0.23104771999999998 0.6867945
0.369623305 -0.23046292499999999 0.6172344
0.45121938 -0.233187285 0.5889690000000001
0.590719 -0.23784835000000001 0.60711115
0.6466105499999999 -0.23971539 0.6050536
0.6886481999999999 -0.241119415 0.59933335
0.7385652500000001 -0.24278634999999998 0.58795185
0.69893435 -0.24144098 0.17034262500000003
0.8170914 -0.245388055 0.16854316000000003
0.8631517 -0.246926715 0.167841615
1.33775085 -0.26277801 0.10382592499999999
1.3920953999999999 -0.26459202000000004 0.07602781
1.46258325 -0.266944225 0.027097761499999998
-1.15049245 -0.19456435 0.10916590500000001
-1.10081435 -0.19610638 0.118514595
-0.5970335 -0.21185329 0.176353455
0.055300890000000005 -0.23018593 0.9469909999999999
0.108356925 -0.23176390500000002 0.98026575
0.15043363 -0.233031865 1.00107475
0.20059913499999998 -0.234568545 1.0174437
0.23870006 -0.23576645000000002 1.01946175
0.28872818 -0.237386135 1.00629375
0.343936085 -0.23924308 0.9682451000000001
0.36849886 -0.24011424 0.9361045
0.39900898999999995 -0.24125386 0.8767447
0.41939676000000004 -0.24224310999999998 0.76007115
0.41695535 -0.24235271 0.69693685
0.84170705 -0.25635734 0.49956798500000005
1.0699003999999999 -0.264586415 0.1550892
1.2412827499999999 -0.270082635 0.12768477
1.28914415 -0.271635075 0.114111305
1.4342206499999999 -0.276447405 0.036907196
-1.0350853 -0.212809855 0.12484431500000001
-0.9667647 -0.21478511499999997 0.134890975
-0.79488845 -0.21977470999999998 0.156752465
-0.7545014999999999 -0.22095437999999998 0.16067802999999997
-0.5478594999999999 -0.227038115 0.1727283
0.06266534500000001 -0.24093572000000002 0.89178445
0.1144886 -0.24228569 0.9242673
0.17315492 -0.243875905 0.95065445
0.21783024 -0.245148725 0.9603815
0.263323785 -0.24653049 0.9559272000000001
0.31727433 -0.24828801 0.93071505
0.42411804 -0.25315391 0.6485429500000001
0.7675015000000001 -0.26408281 0.5312118
0.7400264 -0.265509245 0.15487343
0.91337815 -0.270698445 0.15064477999999998
0.9691377 -0.27236753999999996 0.1492846
-1.249561 -0.222102795 0.05161941
-1.20901615 -0.22306038 0.07133811500000001
-0.6627580499999999 -0.23753034 0.16221344499999998
-0.6257707 -0.23855123499999997 0.163781645
-0.49926579 -0.242042895 0.16914904000000003
0.037987381 -0.25132088 0.81068845
0.095926225 -0.252579785 0.8510801
0.14060974 -0.25361044499999996 0.87556215
0.193659365 -0.25491625 0.8954729
0.24515867 -0.256335175 0.8979362000000001
0.294941365 -0.25787037 0.88208405
0.34342453 -0.25953995 0.8471997
0.42878717 -0.264198 0.5942216499999999
0.46678424 -0.26523407499999996 0.5972448
0.51714065 -0.26659839 0.6022360999999999
0.76221505 -0.27489783 0.44150889
1.11735775 -0.28756853 0.13682723000000002
1.168509 -0.289055425 0.13063311500000002
1.3576749 -0.29499242 0.058866144999999995
-1.13804785 -0.239906385 0.08106202
-1.1096725 -0.24054935 0.08939028
-0.9177217 -0.245137065 0.12585580500000002
-0.87277385 -0.24622457 0.13328790499999998
-0.45316457499999996 -0.25685042 0.16314596
0.046014786 -0.262867345 0.7517966500000001
0.10206312000000001 -0.263869335 0.79063355
0.14545277 -0.26472727 0.8138340500000001
0.19761592 -0.26586687000000003 0.8326864
0.248468815 -0.267186035 0.8336833
0.289071945 -0.26840059 0.8210112
0.33955499499999997 -0.27012935 0.78699695
0.37853106999999997 -0.271781105 0.7342567999999999
0.65983385 -0.286271255 0.13911307
0.70833355 -0.28755337 0.138059855
0.7915196 -0.28975240999999996 0.13625353499999998
0.83797275 -0.29098531 0.134836435
1.0171176499999999 -0.29575214 0.12835175000000001
1.2711858500000002 -0.30292867 0.08440852
-1.0516587 -0.256855765 0.08741438500000001
-0.7792797499999999 -0.26280541 0.133364795
-0.71834475 -0.264189595 0.14009446
-0.58703335 -0.267282315 0.14726341
-0.41147083 -0.271489305 0.15203446
-0.36222309 -0.272704475 0.151031315
0.053512304999999996 -0.27476236 0.69006415
0.10735973500000001 -0.275524685 0.72677985
0.150446 -0.27622765 0.7499516
0.20132794999999998 -0.277210975 0.7670863
0.24017945 -0.27814037999999996 0.76824965
0.29218300999999997 -0.27964024 0.7527238
0.36996528500000003 -0.282600725 0.6816226000000001
0.5643305 -0.288493185 0.60445635
0.62261655 -0.28988648 0.60626955
0.6653611500000001 -0.29099982 0.6014821
0.71588635 -0.292390175 0.5908668
0.7637419 -0.29378445999999997 0.5756395999999999
1.0666729 -0.3081079 0.112219155
1.22953685 -0.31249011 0.084632335
1.3364285 -0.31630859 0.0036099553000000003
-1.0889897 -0.27147116 0.048419237000000004
-0.9985369500000001 -0.27292525500000003 0.08107245
-0.8330387 -0.276048855 0.11505246
-0.6331390000000001 -0.28020719 0.1346606
-0.305202005 -0.28751798 0.13962596500000002
0.09692341 -0.28762704 0.6382701000000001
0.15533745499999999 -0.288133305 0.6834265500000001
0.19030094 -0.28869258 0.6962025
0.24356425 -0.289844385 0.69898935
0.29541716 -0.291324685 0.6817352999999999
0.341037065 -0.293194055 0.63501715
0.65956445 -0.309808925 0.11067658500000001
0.69605405 -0.31065311500000004 0.10952025500000001
0.7441001999999999 -0.3117647 0.10799736000000001
0.89563385 -0.31527042499999997 0.10319501
0.9408904499999999 -0.31631749 0.101760625
1.1663731 -0.32169975500000003 0.08540064
1.2705651000000002 -0.324916765 0.03724128
-0.9524363499999999 -0.288833975 0.067748425
-0.899823 -0.289602895 0.083167255
-0.7250785999999999 -0.292634665 0.11159003
-0.6843731 -0.29337277500000003 0.11669129
-0.53668185 -0.296291245 0.12374222500000001
-0.48284649999999996 -0.29735500000000004 0.126315655
-0.2532354 -0.302211995 0.12203485
-0.206127765 -0.30321911 0.12065023
0.11937871500000001 -0.30130878 0.53385975
0.15721902499999998 -0.30133260500000003 0.57017505
0.199606715 -0.301710145 0.5941266
0.239823165 -0.302510785 0.5957650999999999
0.29202699499999996 -0.30399902 0.57648895
0.3485775 -0.30496819000000003 0.58625845
0.5287189999999999 -0.309253985 0.5602464
0.7621296 -0.31540543 0.49802392500000003
0.76671675 -0.31637255000000003 0.45646160999999996
0.80079465 -0.31592022499999994 0.5117497
0.7958357 -0.32472551000000005 0.08711517
0.8422909000000001 -0.32574311 0.08458107499999999
0.9890799 -0.32895878 0.076574385
1.1188501 -0.331826805 0.06829351
1.20712795 -0.334333295 0.0361806155
-0.86021305 -0.305301065 0.06367951499999999
-0.8123400999999999 -0.30593275999999997 0.075187685
-0.57052435 -0.3098345 0.10367363500000001
-0.42827621000000005 -0.31240169 0.109086635
-0.378825515 -0.31337141999999996 0.10774672
-0.32999202499999997 -0.31432897000000004 0.106423495
-0.156034825 -0.31774018000000004 0.10170907
-0.109934955 -0.31864423500000005 0.10045886000000001
0.21422744 -0.31385630499999995 0.5564856499999999
0.397465975 -0.31663358 0.58554945
0.44725001 -0.3175376 0.58721215
0.496251585 -0.31842321 0.58902325
0.7133908499999999 -0.33517286 0.062141715
0.889744 -0.338729395 0.05326003
0.9465825 -0.33987567 0.050397515000000004
1.0443000500000001 -0.34204457 0.0372084975
1.0970008500000001 -0.343268665 0.0278291105
1.1398148 -0.34415028999999997 0.024913251499999997
1.21463085 -0.34671761 -0.0230017305
-0.75850605 -0.321838745 0.051330925
-0.6703051999999999 -0.322871955 0.06913393500000001
-0.63186465 -0.32345212999999995 0.07207513
-0.51905305 -0.325154885 0.080710055
-0.482263415 -0.325710175 0.08352637499999999
-0.2847901 -0.32924011500000006 0.07827281999999999
-0.22194713500000002 -0.33039662999999997 0.075373055
0.72252995 -0.333512535 0.5606565
0.57818385 -0.34590557 0.0093710425
0.6143354 -0.34668668999999996 0.0034067034499999996
0.47466308 -0.356412755 -0.44602990000000003
0.52490055 -0.356770605 -0.42733878000000003
0.5693096 -0.35738364 -0.42181908999999995
0.6248814 -0.358342605 -0.42202025499999996
0.6515294500000001 -0.359934195 -0.464074015
0.6948135 -0.36161825000000003 -0.4989776
0.80372805 -0.36343023 -0.496870875
-0.6135687 -0.339735525 0.005771518
-0.56817485 -0.34006268 0.018118322
-0.52350135 -0.340383575 0.0303030015
-0.425156055 -0.341417605 0.046196282
-0.37951409999999997 -0.34233015 0.0391361115
-0.33427641 -0.34323461499999997 0.0321382285
-0.27457863 -0.34442812 0.022903681000000002
-0.230263325 -0.345314145 0.0160491465
-0.18633529499999998 -0.34619242 0.009253919
-0.12829453 -0.34734957 0.00038295984500000003
0.35142675 -0.337591095 0.57186065
0.5488211 -0.34042679 0.578396
0.5960095 -0.341106205 0.5799064
0.63805505 -0.34197446 0.57247905
0.34492537500000003 -0.36882654000000004 -0.47377944
0.421717465 -0.36982089500000004 -0.467607675
0.26688113999999996 -0.34829907 0.53813755
0.287596285 -0.38279325000000003 -0.49986422
0.23260221 -0.36009229500000006 0.50457955
0.48755362500000005 -0.36132365499999997 0.5537173
0.6311843 -0.363634675 0.5364156
0.6662127499999999 -0.36485404 0.51395715
0.22151947000000002 -0.3963802 -0.50838085
0.80027895 -0.36636796 0.5156970000000001
1.08762265 -0.38827545999999996 0.00033348799
0.29818385999999997 -0.371842235 0.5058490999999999
0.34994662000000004 -0.37147194 0.5285993
0.39009303 -0.371701045 0.53298565
0.439078065 -0.37221685 0.53227005
0.8024665 -0.41574947500000003 -0.49264788499999995
0.26959464 -0.42488709 -0.5019954
0.22140458 -0.393221675 0.50947515
0.20592674500000002 -0.43867573 -0.5046591
0.258469285 -0.45077704 -0.45605391500000003
0.28862520999999997 -0.450943635 -0.45665294
0.8083354500000001 -0.408127605 0.48677534
0.2704747 -0.41583419000000005 0.5052679999999999
0.3061004 -0.468071105 -0.519318
0.7993056 -0.416629835 0.51852195
0.8010684499999999 -0.46789944 -0.48890561
1.0960794 -0.44377781499999996 0.0012367964000000002
0.20513504500000002 -0.43788045499999995 0.506922
0.228856355 -0.492268465 -0.450113715
0.22970527500000001 -0.49599300999999996 -0.51564185
0.266938805 -0.49321472499999996 -0.46729833
0.31864941 -0.492364915 -0.45308143
0.269818605 -0.44639908 0.5480537
0.294930935 -0.45152195 0.46133875999999996
0.31917885 -0.52408895 -0.5187765
0.8065331 -0.5211780500000001 -0.5064663500000001
1.0621079999999998 -0.48783093499999997 0.006637871500000001
1.1067337 -0.487502365 0.008752346
0.232565105 -0.468183385 0.55179685
0.31667336999999995 -0.46830058 0.54211885
0.297740845 -0.47190383 0.489121675
0.8030198500000001 -0.46763531999999997 0.5065736
0.240294335 -0.5482009 -0.45366764
0.300974995 -0.5477296 -0.45384109
0.27521372 -0.49062893 0.5382341
0.33146127999999997 -0.50665745 0.460889635
0.329791455 -0.51279955 0.5240202
1.0598644 -0.54310305 0.0086277725
1.0918361 -0.5430122 0.0043129920999999995
0.21767333 -0.5230988000000001 0.55164755
0.80191805 -0.51770165 0.50911755
0.30729994 -0.53790955 0.487304925
0.27151822999999997 -0.5436085 0.55592
