# .PCD v0.7 - Point Cloud Data file format
VERSION 0.7
FIELDS x y z
SIZE 4 4 4
TYPE F F F
COUNT 1 1 1
WIDTH 1430
HEIGHT 1
VIEWPOINT 0 0 0 1 0 0 0
POINTS 1430
DATA ascii
2.62800002 1.18400002 3.20900011
3.21799994 1.63399994 3.36899996
2.79800010 1.24399996 3.19899988
2.55800009 1.25399995 3.22900009
2.55800009 1.204 3.33899999
4.14799976 1.84399998 3.14899993
4.24800014 1.30400002 3.48900008
3.40799999 1.33399999 3.51900005
2.80800009 1.44400001 3.45900011
2.74799991 1.15400004 3.20900011
4.24800014 1.53400004 3.45900011
3.87800002 1.39400005 3.53900003
2.61800003 1.44400001 3.4690001
4.24800014 1.50399995 3.47900009
3.80800009 1.60399997 3.18899989
3.64800000 1.61399996 3.35899997
3.91799998 1.65400004 3.29900002
4.08799982 0.90399998 3.2190001
4.33799982 1.63399994 3.47900009
4.14799976 1.53400004 3.33899999
3.73799992 1.46399999 3.43899989
2.56800008 1.22399998 3.38899994
3.98799992 1.41400003 3.51900005
2.73799992 1.27400005 3.19899988
2.76799989 1.35399997 3.51900005
3.09800005 1.17400002 3.20900011
2.87800002 1.08399999 3.20900011
4.23799992 1.47399998 3.44899988
2.61800003 1.21399999 3.20900011
2.79800010 1.38399994 3.52900004
2.58800006 1.58399999 3.37899995
3.73799992 1.33399999 3.52900004
4.08799982 0.83399999 3.25900006
3.86800003 0.83399999 3.28900003
4.27799988 1.08399999 3.43899989
2.68799996 1.40400004 3.53900003
3.44799995 1.19400001 3.20900011
3.44799995 1.16400003 3.20900011
4.35799980 1.05400002 3.15899992
3.55800009 1.24399996 3.19899988
3.83800006 0.83399999 3.31900001
4.10799980 1.12399995 3.47900009
3.35800004 1.40400004 3.53900003
3.80800009 1.17400002 3.20900011
3.18799996 1.22399998 3.26900005
3.35800004 1.48399997 3.4690001
2.53800011 1.42400002 3.53900003
4.35799980 1.65400004 3.44899988
4.07800007 1.33399999 3.51900005
3.37800002 1.47399998 3.4690001
4.27799988 1.28400004 3.29900002
3.30800009 1.37399995 3.54900002
3.42799997 1.53400004 3.40899992
3.99799991 1.72399998 3.2190001
3.32800007 1.50399995 3.43899989
3.82800007 0.84399998 3.26900005
2.78800011 1.40400004 3.53900003
3.76799989 1.61399996 3.15899992
2.63800001 1.14400005 3.22900009
4.07800007 1.44400001 3.48900008
4.35799980 1.10399997 3.18899989
3.92799997 0.83399999 3.37899995
2.94799995 1.10399997 3.19899988
4.32800007 0.98400003 3.54900002
3.24799991 1.204 3.2190001
2.79800010 1.59399998 3.39899993
2.55800009 1.58399999 3.40899992
3.74799991 0.99400002 3.20900011
4.13800001 0.884 3.2190001
3.94799995 0.92400002 3.23900008
3.82800007 0.99400002 3.20900011
3.88800001 1.75399995 3.20900011
2.53800011 1.52400005 3.49900007
2.73799992 1.22399998 3.19899988
3.76799989 1.09399998 3.20900011
4.35799980 0.87400001 3.25900006
4.10799980 1.12399995 3.20900011
4.17799997 0.85399997 3.22900009
4.13800001 1.48399997 3.4289999
3.97799993 1.46399999 3.44899988
3.43799996 1.40400004 3.53900003
2.98799992 1.11399996 3.19899988
3.66799998 1.40400004 3.53900003
2.67799997 1.63399994 3.36899996
4.17799997 1.63399994 3.24900007
3.82800007 1.53400004 3.24900007
3.00799990 1.12399995 3.19899988
4.22800016 1.51400006 3.35899997
2.56800008 1.51400006 3.45900011
2.57800007 1.13399994 3.4690001
4.24800014 0.99400002 3.47900009
3.69799995 1.58399999 3.31900001
4.35799980 1.55400002 3.36899996
3.63800001 1.574 3.329
2.69799995 1.27400005 3.19899988
3.55800009 0.83399999 3.29900002
2.65799999 1.44400001 3.4289999
4.25799990 1.09399998 3.22900009
4.33799982 0.96399999 3.53900003
3.43799996 1.54400003 3.39899993
3.92799997 0.83399999 3.34899998
3.36800003 0.96399999 3.20900011
3.86800003 1.50399995 3.37899995
3.71799994 1.43400002 3.49900007
3.88800001 1.06400001 3.20900011
3.19799995 1.61399996 3.37899995
4.28800011 1.69400001 3.29900002
3.74799991 1.27400005 3.20900011
3.37800002 1.36399996 3.53900003
4.03800011 1.81400001 3.15899992
4.20800018 1.54400003 3.28900003
3.79800010 1.60399997 3.18899989
3.90799999 1.41400003 3.52900004
3.09800005 1.33399999 3.49900007
2.97799993 1.56400001 3.43899989
4.03800011 1.78400004 3.23900008
2.80800009 1.43400002 3.50900006
4.35799980 1.43400002 3.40899992
3.98799992 1.78400004 3.18899989
4.27799988 1.26400006 3.48900008
4.35799980 1.53400004 3.49900007
3.68799996 1.52400005 3.39899993
2.52800012 1.34399998 3.52900004
3.52800012 0.86400002 3.27900004
4.10799980 1.52400005 3.35899997
3.99799991 1.704 3.25900006
4.35799980 1.11399996 3.40899992
2.71799994 1.18400002 3.19899988
3.78800011 1.14400005 3.20900011
2.63800001 1.44400001 3.41899991
2.72799993 1.17400002 3.19899988
2.61800003 1.29400003 3.47900009
3.45799994 0.884 3.26900005
3.15799999 1.48399997 3.45900011
4.17799997 1.09399998 3.49900007
3.77800012 1.61399996 3.16899991
3.11800003 1.25399995 3.19899988
4.35799980 0.92400002 3.43899989
3.60800004 1.10399997 3.20900011
3.81800008 1.06400001 3.20900011
3.12800002 1.55400002 3.40899992
4.18800020 1.18400002 3.33899999
3.27800012 1.51400006 3.4289999
4.10799980 1.44400001 3.48900008
3.66799998 1.36399996 3.54900002
2.96799994 1.704 3.36899996
2.56800008 1.61399996 3.39899993
2.59800005 1.204 3.47900009
3.97799993 1.47399998 3.43899989
3.67799997 1.24399996 3.20900011
4.35799980 1.12399995 3.41899991
3.65799999 1.46399999 3.45900011
4.35799980 1.00399995 3.4690001
2.70799994 1.18400002 3.20900011
3.07800007 1.53400004 3.45900011
4.35799980 1.56400001 3.15899992
4.19799995 1.204 3.33899999
3.99799991 1.22399998 3.20900011
2.96799994 1.39400005 3.54900002
4.35799980 1.53400004 3.2190001
4.10799980 1.19400001 3.49900007
3.17799997 1.42400002 3.52900004
3.67799997 1.574 3.28900003
4.35799980 1.58399999 3.28900003
3.22799993 1.53400004 3.41899991
4.01800013 1.17400002 3.20900011
4.14799976 1.64400005 3.22900009
4.35799980 1.39400005 3.30900002
4.12799978 1.62399995 3.27900004
4.19799995 1.48399997 3.41899991
4.26800013 0.96399999 3.50900006
3.83800006 1.51400006 3.34899998
3.79800010 1.40400004 3.52900004
3.63800001 1.60399997 3.35899997
2.80800009 1.01400006 3.2190001
4.11800003 1.17400002 3.20900011
4.36800003 1.10399997 3.15899992
2.56800008 1.13399994 3.48900008
4.00799990 1.66400003 3.25900006
3.53800011 1.05400002 3.20900011
4.24800014 1.31400001 3.44899988
4.17799997 1.13399994 3.20900011
4.11800003 1.39400005 3.53900003
4.35799980 1.01400006 3.44899988
2.65799999 1.54400003 3.37899995
2.92799997 1.09399998 3.19899988
3.94799995 1.074 3.20900011
4.23799992 1.31400001 3.47900009
3.93799996 1.33399999 3.50900006
3.90799999 1.35399997 3.54900002
4.13800001 1.824 3.23900008
3.99799991 0.92400002 3.23900008
3.66799998 1.02400005 3.20900011
3.85800004 1.71399999 3.30900002
3.58800006 0.83399999 3.28900003
4.09800005 1.83399999 3.15899992
3.05800009 1.204 3.19899988
3.87800002 1.53400004 3.31900001
3.77800012 1.47399998 3.41899991
3.92799997 1.73399997 3.28900003
4.23799992 1.46399999 3.50900006
2.71799994 1.47399998 3.39899993
4.26800013 1.25399995 3.25900006
4.12799978 1.21399999 3.20900011
3.92799997 1.65400004 3.28900003
3.62800002 1.42400002 3.50900006
3.61800003 1.42400002 3.51900005
4.27799988 1.13399994 3.53900003
3.07800007 1.42400002 3.52900004
4.26800013 0.92400002 3.50900006
3.12800002 1.60399997 3.39899993
4.06799984 1.19400001 3.20900011
3.88800001 1.73399997 3.15899992
2.56800008 1.49399996 3.45900011
3.96799994 1.68400002 3.31900001
2.68799996 1.42400002 3.51900005
4.03800011 1.76400006 3.28900003
2.62800002 1.36399996 3.51900005
4.28800011 1.03400004 3.54900002
4.19799995 1.56400001 3.33899999
4.08799982 1.824 3.1789999
3.93799996 1.76400006 3.19899988
4.24800014 1.12399995 3.44899988
4.07800007 1.64400005 3.23900008
3.89800000 1.59399998 3.20900011
4.36800003 1.35399997 3.24900007
4.06799984 1.24399996 3.47900009
4.27799988 1.19400001 3.34899998
3.56800008 0.83399999 3.28900003
2.73799992 1.324 3.49900007
4.35799980 1.43400002 3.49900007
3.89800000 1.38399994 3.53900003
3.73799992 1.60399997 3.29900002
3.14800000 1.22399998 3.19899988
3.93799996 1.62399995 3.29900002
4.29799986 1.09399998 3.54900002
2.91799998 1.574 3.4289999
4.01800013 1.80400002 3.1789999
4.27799988 1.12399995 3.47900009
2.60800004 1.31400001 3.49900007
3.29800010 1.48399997 3.45900011
2.66799998 1.42400002 3.53900003
4.18800020 1.34399998 3.52900004
4.24800014 1.14400005 3.47900009
4.35799980 0.99400002 3.44899988
2.86800003 1.52400005 3.43899989
4.25799990 1.01400006 3.45900011
3.80800009 1.704 3.30900002
3.88800001 1.74399996 3.23900008
3.44799995 0.96399999 3.20900011
4.35799980 1.25399995 3.53900003
2.60800004 1.42400002 3.48900008
3.91799998 1.62399995 3.20900011
4.34800005 1.60399997 3.19899988
4.35799980 1.37399995 3.36899996
4.06799984 1.55400002 3.35899997
4.21799994 1.51400006 3.34899998
3.33800006 1.49399996 3.44899988
4.34800005 1.03400004 3.53900003
4.16800022 1.59399998 3.25900006
4.35799980 1.28400004 3.44899988
4.10799980 1.204 3.20900011
3.32800007 1.11399996 3.20900011
3.51799989 1.03400004 3.20900011
3.43799996 0.85399997 3.28900003
4.24800014 1.38399994 3.54900002
3.66799998 1.26400006 3.20900011
4.14799976 1.11399996 3.36899996
4.26800013 1.24399996 3.41899991
4.15799999 1.86399996 3.15899992
3.63800001 1.25399995 3.20900011
4.22800016 1.574 3.26900005
3.66799998 0.96399999 3.20900011
2.67799997 1.42400002 3.51900005
2.74799991 1.36399996 3.51900005
3.02800012 1.42400002 3.51900005
2.88800001 1.05400002 3.20900011
3.04800010 1.63399994 3.40899992
2.57800007 1.35399997 3.51900005
3.94799995 0.87400001 3.27900004
3.64800000 1.39400005 3.53900003
4.11800003 1.60399997 3.30900002
4.26800013 1.62399995 3.41899991
4.25799990 0.94400001 3.34899998
3.87800002 1.16400003 3.20900011
4.35799980 1.54400003 3.4289999
4.33799982 1.44400001 3.51900005
4.05800009 0.83399999 3.28900003
2.79800010 1.44400001 3.44899988
3.83800006 1.72399998 3.22900009
4.22800016 1.21399999 3.50900006
3.86800003 1.74399996 3.22900009
3.63800001 1.51400006 3.4289999
3.95799994 0.90399998 3.24900007
3.87800002 0.98400003 3.20900011
3.19799995 0.824 3.30900002
4.11800003 1.23399997 3.20900011
3.69799995 1.51400006 3.40899992
3.90799999 0.83399999 3.39899993
3.46799994 1.04400003 3.20900011
2.52800012 1.56400001 3.48900008
4.27799988 0.96399999 3.52900004
3.91799998 0.824 3.34899998
3.27800012 1.64400005 3.37899995
2.61800003 1.47399998 3.36899996
3.98799992 1.77400005 3.22900009
4.07800007 1.33399999 3.50900006
3.37800002 1.63399994 3.329
3.86800003 0.83399999 3.31900001
3.91799998 1.58399999 3.24900007
4.36800003 1.36399996 3.19899988
2.79800010 1.43400002 3.47900009
3.17799997 1.33399999 3.51900005
2.76799989 1.15400004 3.19899988
3.06800008 1.61399996 3.41899991
2.54800010 1.29400003 3.50900006
3.99799991 1.47399998 3.43899989
2.54800010 1.10399997 3.47900009
4.21799994 1.16400003 3.51900005
2.55800009 1.25399995 3.26900005
4.25799990 0.93400002 3.329
4.21799994 1.21399999 3.20900011
3.53800011 1.204 3.20900011
3.67799997 0.92400002 3.2190001
4.32800007 0.97399998 3.55900002
3.90799999 1.52400005 3.33899999
4.24800014 1.31400001 3.49900007
3.28800011 1.17400002 3.20900011
4.02799988 1.14400005 3.20900011
4.26800013 1.22399998 3.44899988
4.35799980 1.38399994 3.45900011
3.83800006 0.85399997 3.25900006
3.42799997 1.03400004 3.20900011
4.35799980 1.18400002 3.52900004
3.32800007 1.16400003 3.20900011
4.29799986 1.30400002 3.52900004
4.12799978 1.11399996 3.48900008
3.80800009 1.58399999 3.19899988
3.88800001 1.61399996 3.18899989
3.53800011 0.954 3.2190001
4.28800011 1.54400003 3.50900006
4.23799992 1.454 3.49900007
2.62800002 1.324 3.48900008
3.75799990 0.84399998 3.28900003
3.95799994 1.44400001 3.48900008
4.26800013 1.61399996 3.47900009
3.94799995 0.91399997 3.24900007
3.93799996 1.63399994 3.25900006
4.05800009 1.49399996 3.40899992
3.51799989 0.91399997 3.24900007
3.32800007 0.89399999 3.26900005
3.25799990 1.18400002 3.20900011
4.32800007 0.85399997 3.52900004
3.00799990 1.14400005 3.20900011
3.37800002 0.87400001 3.27900004
3.51799989 1.454 3.48900008
2.77800012 1.42400002 3.51900005
2.86800003 1.25399995 3.19899988
2.97799993 1.42400002 3.52900004
2.79800010 1.50399995 3.41899991
4.11800003 1.10399997 3.48900008
3.97799993 0.91399997 3.25900006
4.10799980 1.55400002 3.35899997
3.99799991 1.42400002 3.51900005
3.27800012 0.884 3.26900005
4.03800011 0.83399999 3.30900002
2.53800011 1.46399999 3.51900005
3.74799991 0.83399999 3.329
2.56800008 1.29400003 3.34899998
4.23799992 1.46399999 3.47900009
3.61800003 0.84399998 3.26900005
4.23799992 1.56400001 3.25900006
4.26800013 1.63399994 3.36899996
3.64800000 1.40400004 3.52900004
2.89800000 1.42400002 3.52900004
4.24800014 1.59399998 3.28900003
4.35799980 1.06400001 3.27900004
3.11800003 1.58399999 3.40899992
4.15799999 1.51400006 3.34899998
3.36800003 1.43400002 3.50900006
3.03800011 1.41400003 3.53900003
3.38800001 1.00399995 3.20900011
4.10799980 1.824 3.18899989
3.73799992 1.08399999 3.20900011
2.62800002 1.454 3.39899993
4.35799980 1.36399996 3.48900008
4.04799986 1.66400003 3.30900002
3.34800005 0.92400002 3.23900008
4.26800013 1.08399999 3.35899997
3.37800002 1.04400003 3.20900011
3.10800004 1.16400003 3.20900011
4.27799988 1.27400005 3.37899995
4.15799999 1.074 3.20900011
4.24800014 1.19400001 3.50900006
4.06799984 1.79400003 3.25900006
4.16800022 1.68400002 3.1789999
3.29800010 1.42400002 3.51900005
4.19799995 1.204 3.35899997
4.26800013 1.03400004 3.40899992
4.04799986 1.64400005 3.26900005
4.11800003 1.37399995 3.54900002
3.93799996 1.54400003 3.30900002
2.68799996 1.44400001 3.39899993
3.88800001 1.54400003 3.27900004
4.35799980 1.19400001 3.4690001
3.79800010 0.90399998 3.2190001
3.49799991 0.83399999 3.30900002
2.82800007 1.18400002 3.19899988
4.35799980 1.25399995 3.51900005
4.16800022 1.53400004 3.31900001
2.97799993 1.40400004 3.54900002
2.79800010 1.42400002 3.52900004
4.35799980 1.25399995 3.31900001
3.23799992 1.17400002 3.23900008
3.77800012 1.37399995 3.54900002
4.27799988 0.90399998 3.52900004
2.95799994 1.71399999 3.35899997
3.69799995 1.43400002 3.49900007
2.89800000 1.52400005 3.43899989
3.45799994 0.92400002 3.23900008
2.60800004 1.63399994 3.37899995
3.87800002 1.06400001 3.20900011
2.82800007 1.08399999 3.20900011
4.24800014 1.22399998 3.44899988
3.29800010 1.15400004 3.20900011
3.71799994 0.99400002 3.20900011
4.20800018 1.52400005 3.33899999
4.26800013 1.63399994 3.40899992
2.56800008 1.27400005 3.329
3.95799994 0.954 3.20900011
2.88800001 1.25399995 3.19899988
4.27799988 1.25399995 3.31900001
4.02799988 1.67400002 3.28900003
3.32800007 1.34399998 3.52900004
2.55800009 1.52400005 3.45900011
3.61800003 1.36399996 3.54900002
4.33799982 1.65400004 3.25900006
4.25799990 0.954 3.30900002
3.50799990 1.574 3.38899994
4.01800013 1.74399996 3.1789999
2.57800007 1.26400006 3.40899992
4.24800014 1.22399998 3.29900002
3.65799999 0.91399997 3.2190001
4.25799990 1.574 3.34899998
2.70799994 1.13399994 3.20900011
2.52800012 1.65400004 3.44899988
3.76799989 1.42400002 3.51900005
2.60800004 1.43400002 3.45900011
3.65799999 1.24399996 3.20900011
3.13800001 1.54400003 3.41899991
4.35799980 1.27400005 3.28900003
4.24800014 0.89399999 3.36899996
4.25799990 1.54400003 3.43899989
2.58800006 1.51400006 3.38899994
2.54800010 1.18400002 3.26900005
3.02800012 1.26400006 3.19899988
4.35799980 1.19400001 3.25900006
3.65799999 1.51400006 3.41899991
3.06800008 1.64400005 3.39899993
4.12799978 1.16400003 3.49900007
4.27799988 1.22399998 3.4690001
3.98799992 1.75399995 3.26900005
2.77800012 1.15400004 3.19899988
3.08800006 1.41400003 3.52900004
4.24800014 0.96399999 3.25900006
4.07800007 1.83399999 3.14899993
4.17799997 1.23399997 3.20900011
2.89800000 1.71399999 3.34899998
4.10799980 1.574 3.33899999
3.80800009 1.67400002 3.31900001
2.59800005 1.21399999 3.20900011
3.21799994 0.83399999 3.29900002
4.17799997 1.85399997 3.20900011
2.88800001 1.61399996 3.40899992
4.28800011 1.65400004 3.40899992
4.12799978 1.36399996 3.54900002
3.40799999 1.06400001 3.20900011
3.40799999 0.85399997 3.28900003
4.01800013 1.67400002 3.27900004
3.98799992 1.04400003 3.20900011
4.24800014 0.954 3.26900005
3.93799996 1.69400001 3.31900001
3.93799996 1.46399999 3.44899988
3.75799990 1.69400001 3.30900002
3.63800001 0.87400001 3.24900007
3.73799992 0.85399997 3.25900006
4.28800011 1.42400002 3.53900003
4.26800013 1.14400005 3.27900004
4.30800009 1.42400002 3.53900003
3.82800007 1.54400003 3.22900009
4.07800007 1.21399999 3.4690001
3.23799992 0.884 3.28900003
4.35799980 1.40400004 3.47900009
3.51799989 1.52400005 3.4289999
3.33800006 1.40400004 3.53900003
3.29800010 1.61399996 3.37899995
4.01800013 1.03400004 3.20900011
2.58800006 1.44400001 3.47900009
3.30800009 1.64400005 3.36899996
3.84800005 0.83399999 3.33899999
2.84800005 1.49399996 3.4289999
2.82800007 1.03400004 3.20900011
3.01799989 1.58399999 3.4289999
3.42799997 1.43400002 3.50900006
4.00799990 1.26400006 3.20900011
4.03800011 0.86400002 3.27900004
3.50799990 1.53400004 3.41899991
2.58800006 1.23399997 3.49900007
4.23799992 0.90399998 3.4289999
3.80800009 1.38399994 3.53900003
4.16800022 1.24399996 3.4690001
4.35799980 1.64400005 3.41899991
4.10799980 1.63399994 3.24900007
4.32800007 1.16400003 3.54900002
4.19799995 1.22399998 3.20900011
3.50799990 1.54400003 3.40899992
3.26799989 1.17400002 3.20900011
4.30800009 0.92400002 3.55900002
4.32800007 1.67400002 3.36899996
3.23799992 1.21399999 3.20900011
2.83800006 1.41400003 3.53900003
3.87800002 1.52400005 3.33899999
4.35799980 1.13399994 3.19899988
4.00799990 1.59399998 3.35899997
4.35799980 0.96399999 3.29900002
3.71799994 0.85399997 3.24900007
3.73799992 1.38399994 3.54900002
3.47799993 1.56400001 3.38899994
4.35799980 1.35399997 3.52900004
4.10799980 1.71399999 3.15899992
3.74799991 1.66400003 3.329
3.93799996 1.51400006 3.36899996
3.82800007 1.51400006 3.329
4.33799982 1.66400003 3.33899999
3.00799990 1.40400004 3.53900003
4.35799980 1.49399996 3.19899988
4.25799990 1.53400004 3.4690001
4.35799980 1.42400002 3.2190001
3.88800001 1.73399997 3.26900005
2.54800010 1.19400001 3.24900007
2.80800009 1.58399999 3.40899992
3.61800003 1.09399998 3.20900011
4.27799988 0.89399999 3.51900005
3.19799995 1.48399997 3.45900011
3.38800001 1.53400004 3.40899992
4.26800013 1.06400001 3.47900009
4.35799980 1.08399999 3.1789999
3.44799995 1.08399999 3.20900011
4.20800018 1.204 3.329
4.25799990 1.59399998 3.34899998
3.17799997 0.84399998 3.31900001
3.13800001 1.46399999 3.47900009
3.47799993 1.42400002 3.51900005
3.68799996 1.37399995 3.54900002
4.21799994 1.41400003 3.52900004
3.85800004 1.69400001 3.30900002
4.00799990 1.65400004 3.33899999
4.35799980 1.01400006 3.38899994
4.35799980 1.02400005 3.40899992
3.34800005 1.58399999 3.38899994
2.88800001 1.39400005 3.54900002
4.01800013 1.77400005 3.24900007
3.87800002 1.73399997 3.1789999
3.30800009 0.89399999 3.26900005
4.19799995 1.19400001 3.31900001
4.25799990 1.02400005 3.23900008
2.95799994 1.41400003 3.53900003
3.87800002 1.21399999 3.20900011
4.21799994 1.09399998 3.20900011
3.08800006 1.38399994 3.54900002
4.09800005 0.93400002 3.20900011
4.03800011 1.25399995 3.20900011
3.76799989 1.17400002 3.19899988
4.03800011 1.80400002 3.19899988
4.35799980 0.96399999 3.31900001
2.94799995 1.53400004 3.44899988
3.67799997 1.35399997 3.54900002
4.22800016 1.21399999 3.26900005
3.95799994 1.574 3.39899993
3.63800001 1.09399998 3.20900011
3.67799997 1.33399999 3.50900006
4.35799980 1.51400006 3.35899997
4.27799988 1.31400001 3.52900004
3.74799991 1.63399994 3.329
4.35799980 0.91399997 3.26900005
3.26799989 1.14400005 3.20900011
3.14800000 1.18400002 3.20900011
2.72799993 1.42400002 3.52900004
2.57800007 1.50399995 3.41899991
3.99799991 0.97399998 3.20900011
3.69799995 1.33399999 3.51900005
2.70799994 1.34399998 3.50900006
4.35799980 1.53400004 3.36899996
3.97799993 1.75399995 3.25900006
4.27799988 1.26400006 3.2190001
4.08799982 1.60399997 3.329
3.63800001 1.33399999 3.51900005
3.58800006 1.24399996 3.19899988
2.97799993 1.10399997 3.19899988
4.26800013 1.10399997 3.50900006
4.28800011 0.98400003 3.53900003
2.71799994 1.44400001 3.41899991
4.35799980 1.05400002 3.28900003
3.93799996 1.34399998 3.54900002
4.26800013 1.23399997 3.4289999
4.01800013 1.574 3.36899996
2.55800009 1.17400002 3.34899998
3.77800012 1.67400002 3.329
2.84800005 1.44400001 3.44899988
2.95799994 1.44400001 3.49900007
3.56800008 1.37399995 3.54900002
2.73799992 1.03400004 3.2190001
4.35799980 1.52400005 3.27900004
2.87800002 1.66400003 3.38899994
3.69799995 1.61399996 3.33899999
4.26800013 1.24399996 3.20900011
4.35799980 1.00399995 3.1789999
4.08799982 1.50399995 3.37899995
2.57800007 1.59399998 3.38899994
2.88800001 1.574 3.4289999
3.70799994 1.454 3.45900011
2.75799990 1.38399994 3.52900004
2.69799995 1.35399997 3.50900006
4.35799980 1.50399995 3.41899991
4.32800007 1.27400005 3.54900002
4.09800005 1.62399995 3.31900001
4.31799984 1.64400005 3.44899988
3.21799994 1.43400002 3.50900006
4.35799980 0.954 3.18899989
4.35799980 1.52400005 3.47900009
4.35799980 1.06400001 3.1789999
2.56800008 1.22399998 3.4289999
4.22800016 1.12399995 3.50900006
3.56800008 1.09399998 3.20900011
3.98799992 0.85399997 3.31900001
4.06799984 1.22399998 3.45900011
4.09800005 1.83399999 3.16899991
4.35799980 1.40400004 3.34899998
4.35799980 0.85399997 3.37899995
4.22800016 1.43400002 3.51900005
3.95799994 1.54400003 3.40899992
4.35799980 1.01400006 3.15899992
3.37800002 1.46399999 3.47900009
3.01799989 1.39400005 3.53900003
2.66799998 1.59399998 3.36899996
3.84800005 0.884 3.23900008
2.99799991 1.59399998 3.4289999
3.21799994 1.204 3.23900008
4.35799980 1.19400001 3.48900008
3.82800007 1.59399998 3.19899988
3.68799996 1.03400004 3.20900011
2.97799993 1.12399995 3.19899988
2.83800006 1.02400005 3.20900011
4.35799980 1.10399997 3.38899994
3.70799994 0.93400002 3.2190001
4.35799980 1.324 3.4289999
4.14799976 0.87400001 3.2190001
3.42799997 1.58399999 3.37899995
4.35799980 1.11399996 3.43899989
3.60800004 0.92400002 3.22900009
4.14799976 1.824 3.22900009
4.26800013 1.06400001 3.25900006
4.05800009 1.40400004 3.52900004
4.17799997 1.65400004 3.20900011
2.91799998 1.13399994 3.19899988
3.89800000 1.08399999 3.20900011
3.65799999 1.54400003 3.35899997
4.05800009 1.44400001 3.50900006
4.33799982 1.06400001 3.54900002
4.36800003 1.27400005 3.20900011
3.96799994 1.23399997 3.20900011
4.25799990 1.30400002 3.40899992
2.57800007 1.51400006 3.4289999
3.44799995 0.89399999 3.25900006
4.06799984 0.92400002 3.20900011
3.96799994 1.56400001 3.39899993
4.32800007 1.454 3.52900004
4.01800013 1.34399998 3.54900002
3.74799991 0.824 3.37899995
4.35799980 1.46399999 3.20900011
3.64800000 1.48399997 3.44899988
4.25799990 1.204 3.49900007
2.55800009 1.49399996 3.50900006
3.38800001 1.55400002 3.38899994
3.79800010 1.66400003 3.329
3.04800010 1.574 3.43899989
4.04799986 1.65400004 3.22900009
3.51799989 0.87400001 3.27900004
2.82800007 1.34399998 3.50900006
4.09800005 1.50399995 3.38899994
3.53800011 0.92400002 3.23900008
4.35799980 1.28400004 3.37899995
2.63800001 1.41400003 3.53900003
3.00799990 1.39400005 3.54900002
2.66799998 1.44400001 3.43899989
3.40799999 1.33399999 3.49900007
2.59800005 1.24399996 3.4690001
3.31800008 1.58399999 3.38899994
2.76799989 1.02400005 3.2190001
3.83800006 1.71399999 3.18899989
4.21799994 1.16400003 3.52900004
2.81800008 1.43400002 3.50900006
4.10799980 1.34399998 3.52900004
3.49799991 1.11399996 3.20900011
2.74799991 1.64400005 3.37899995
4.06799984 1.41400003 3.52900004
4.18800020 1.18400002 3.329
2.94799995 1.72399998 3.34899998
3.66799998 1.49399996 3.4289999
2.55800009 1.18400002 3.27900004
3.57800007 1.33399999 3.51900005
3.20799994 1.25399995 3.19899988
4.08799982 1.36399996 3.54900002
3.70799994 1.46399999 3.43899989
3.49799991 1.41400003 3.52900004
4.20800018 1.43400002 3.51900005
4.26800013 1.18400002 3.20900011
3.82800007 1.46399999 3.44899988
2.90799999 1.75399995 3.31900001
4.29799986 1.21399999 3.48900008
4.27799988 1.13399994 3.26900005
2.63800001 1.59399998 3.36899996
4.35799980 1.49399996 3.29900002
3.77800012 1.04400003 3.20900011
3.97799993 0.92400002 3.24900007
4.16800022 1.16400003 3.35899997
3.92799997 1.64400005 3.30900002
3.35800004 1.074 3.20900011
3.62800002 1.33399999 3.52900004
2.56800008 1.50399995 3.4690001
4.11800003 1.06400001 3.20900011
4.36800003 1.27400005 3.15899992
3.83800006 0.98400003 3.20900011
4.09800005 1.824 3.19899988
4.36800003 1.17400002 3.20900011
3.70799994 1.59399998 3.31900001
4.35799980 1.10399997 3.36899996
3.72799993 0.96399999 3.20900011
4.34800005 0.87400001 3.4690001
3.50799990 1.02400005 3.20900011
3.01799989 1.33399999 3.50900006
3.51799989 0.93400002 3.22900009
3.64800000 1.03400004 3.20900011
3.68799996 1.40400004 3.53900003
4.33799982 1.55400002 3.49900007
4.24800014 1.66400003 3.329
3.99799991 1.69400001 3.24900007
4.13800001 0.93400002 3.2190001
3.75799990 1.574 3.16899991
3.93799996 0.824 3.31900001
4.23799992 1.04400003 3.20900011
3.96799994 1.54400003 3.39899993
2.99799991 1.10399997 3.19899988
3.56800008 1.454 3.49900007
2.81800008 1.34399998 3.51900005
4.21799994 1.58399999 3.27900004
3.06800008 1.47399998 3.47900009
2.55800009 1.47399998 3.51900005
4.02799988 0.96399999 3.20900011
2.74799991 1.47399998 3.40899992
3.64800000 0.884 3.23900008
3.31800008 1.35399997 3.53900003
3.72799993 1.15400004 3.20900011
3.97799993 1.77400005 3.20900011
3.93799996 1.77400005 3.1789999
3.01799989 1.21399999 3.19899988
3.40799999 1.49399996 3.44899988
3.54800010 0.954 3.2190001
3.70799994 0.90399998 3.2190001
4.33799982 1.66400003 3.35899997
4.11800003 1.49399996 3.41899991
2.55800009 1.64400005 3.41899991
2.57800007 1.27400005 3.38899994
2.73799992 1.39400005 3.53900003
3.26799989 1.56400001 3.38899994
3.17799997 1.46399999 3.48900008
3.91799998 0.93400002 3.2190001
2.62800002 1.34399998 3.50900006
3.75799990 1.19400001 3.19899988
2.92799997 1.64400005 3.39899993
2.89800000 1.44400001 3.49900007
4.34800005 0.89399999 3.4690001
3.55800009 1.33399999 3.49900007
3.91799998 1.65400004 3.20900011
4.26800013 1.15400004 3.23900008
4.25799990 1.61399996 3.329
4.25799990 1.12399995 3.20900011
4.10799980 1.81400001 3.24900007
4.21799994 0.86400002 3.25900006
3.14800000 1.574 3.38899994
4.22800016 1.56400001 3.28900003
3.19799995 1.56400001 3.38899994
3.96799994 1.68400002 3.34899998
4.25799990 0.94400001 3.48900008
3.84800005 1.52400005 3.30900002
4.15799999 1.63399994 3.25900006
4.20800018 0.86400002 3.24900007
3.46799994 1.38399994 3.54900002
4.06799984 1.79400003 3.27900004
3.96799994 0.91399997 3.24900007
4.03800011 1.52400005 3.38899994
3.64800000 1.42400002 3.51900005
4.27799988 1.68400002 3.34899998
4.15799999 1.824 3.20900011
3.87800002 0.884 3.24900007
4.36800003 1.33399999 3.18899989
3.87800002 1.74399996 3.19899988
4.04799986 0.97399998 3.20900011
4.27799988 1.26400006 3.30900002
4.10799980 1.60399997 3.329
3.68799996 1.21399999 3.19899988
4.35799980 1.18400002 3.29900002
4.13800001 1.81400001 3.19899988
3.65799999 1.11399996 3.20900011
2.96799994 1.61399996 3.41899991
3.99799991 1.33399999 3.51900005
2.55800009 1.19400001 3.34899998
4.20800018 1.86399996 3.18899989
4.26800013 0.99400002 3.33899999
4.24800014 0.884 3.29900002
4.31799984 1.05400002 3.55900002
4.19799995 1.85399997 3.18899989
4.35799980 1.454 3.25900006
4.36800003 1.23399997 3.22900009
4.23799992 0.884 3.25900006
4.04799986 1.22399998 3.20900011
2.66799998 1.17400002 3.20900011
4.13800001 1.24399996 3.4690001
2.90799999 1.21399999 3.19899988
3.91799998 1.26400006 3.20900011
4.35799980 1.59399998 3.38899994
3.13800001 1.56400001 3.39899993
3.36800003 1.09399998 3.20900011
3.72799993 1.48399997 3.40899992
3.46799994 1.44400001 3.49900007
2.89800000 1.14400005 3.19899988
3.43799996 1.21399999 3.20900011
4.35799980 1.16400003 3.33899999
3.98799992 1.34399998 3.54900002
3.35800004 1.53400004 3.40899992
4.25799990 1.63399994 3.31900001
3.31800008 1.12399995 3.20900011
3.96799994 1.46399999 3.45900011
3.51799989 1.19400001 3.20900011
2.76799989 1.43400002 3.51900005
4.30800009 1.52400005 3.50900006
3.58800006 0.87400001 3.25900006
4.35799980 1.39400005 3.38899994
3.45799994 1.46399999 3.47900009
4.31799984 0.94400001 3.55900002
4.11800003 1.01400006 3.20900011
3.66799998 1.37399995 3.55900002
4.25799990 1.56400001 3.33899999
3.94799995 1.76400006 3.20900011
4.17799997 1.84399998 3.22900009
4.23799992 0.94400001 3.24900007
4.06799984 1.77400005 3.1789999
4.30800009 1.41400003 3.54900002
4.13800001 1.21399999 3.20900011
3.09800005 1.454 3.48900008
2.97799993 1.16400003 3.19899988
2.52800012 1.12399995 3.47900009
2.74799991 1.59399998 3.38899994
3.25799990 1.46399999 3.47900009
2.68799996 1.28400004 3.19899988
2.92799997 1.35399997 3.51900005
3.22799993 1.46399999 3.47900009
4.07800007 1.79400003 3.14899993
4.29799986 1.66400003 3.36899996
2.78800011 1.55400002 3.40899992
4.32800007 0.97399998 3.53900003
3.55800009 1.52400005 3.4289999
3.02800012 1.44400001 3.50900006
4.08799982 1.66400003 3.19899988
3.21799994 1.49399996 3.44899988
3.72799993 1.33399999 3.50900006
4.25799990 1.15400004 3.53900003
2.78800011 1.37399995 3.52900004
4.11800003 0.86400002 3.22900009
3.65799999 1.43400002 3.49900007
3.69799995 1.38399994 3.54900002
4.22800016 1.14400005 3.20900011
2.96799994 1.19400001 3.19899988
3.39800000 1.39400005 3.54900002
4.35799980 1.11399996 3.329
4.22800016 1.19400001 3.27900004
2.56800008 1.204 3.45900011
3.31800008 1.04400003 3.20900011
4.33799982 1.60399997 3.48900008
2.93799996 1.26400006 3.19899988
3.37800002 0.90399998 3.25900006
4.35799980 1.56400001 3.18899989
4.35799980 1.48399997 3.41899991
2.85800004 1.43400002 3.49900007
4.25799990 0.954 3.47900009
4.31799984 1.68400002 3.24900007
4.25799990 1.22399998 3.23900008
3.98799992 1.75399995 3.28900003
4.23799992 1.13399994 3.49900007
4.11800003 1.26400006 3.48900008
3.68799996 1.54400003 3.36899996
3.91799998 1.67400002 3.27900004
3.13800001 1.17400002 3.20900011
4.24800014 1.30400002 3.4690001
3.29800010 1.44400001 3.49900007
4.15799999 1.14400005 3.20900011
4.15799999 1.66400003 3.19899988
2.87800002 1.40400004 3.54900002
3.34800005 1.204 3.20900011
4.36800003 1.27400005 3.1789999
3.86800003 1.49399996 3.38899994
3.82800007 1.66400003 3.329
4.35799980 1.00399995 3.40899992
3.89800000 1.66400003 3.27900004
2.80800009 1.17400002 3.19899988
4.35799980 1.52400005 3.31900001
4.26800013 0.94400001 3.49900007
3.32800007 0.84399998 3.29900002
4.06799984 0.83399999 3.27900004
4.34800005 1.66400003 3.4289999
3.43799996 0.90399998 3.25900006
3.77800012 1.63399994 3.329
3.99799991 1.76400006 3.26900005
3.16799998 1.61399996 3.37899995
4.01800013 1.074 3.20900011
3.01799989 1.52400005 3.45900011
4.01800013 1.72399998 3.1789999
3.53800011 1.40400004 3.53900003
2.62800002 1.58399999 3.36899996
3.79800010 1.18400002 3.20900011
4.35799980 1.30400002 3.51900005
4.24800014 1.14400005 3.49900007
4.25799990 0.954 3.37899995
3.57800007 1.02400005 3.20900011
4.35799980 1.11399996 3.37899995
2.63800001 1.19400001 3.20900011
4.33799982 1.47399998 3.51900005
3.43799996 1.04400003 3.20900011
3.80800009 1.454 3.45900011
4.26800013 1.59399998 3.4690001
3.75799990 1.26400006 3.20900011
4.34800005 1.074 3.54900002
3.84800005 1.36399996 3.55900002
4.04799986 1.13399994 3.20900011
3.47799993 1.26400006 3.19899988
2.83800006 1.16400003 3.19899988
3.29800010 1.39400005 3.54900002
3.89800000 1.46399999 3.44899988
4.06799984 1.81400001 3.1789999
2.99799991 1.66400003 3.39899993
2.57800007 1.46399999 3.45900011
4.04799986 1.72399998 3.15899992
4.24800014 1.15400004 3.28900003
2.76799989 1.204 3.19899988
3.53800011 1.27400005 3.19899988
4.17799997 1.56400001 3.31900001
2.79800010 1.40400004 3.54900002
3.91799998 0.83399999 3.30900002
4.32800007 0.884 3.52900004
4.20800018 1.44400001 3.50900006
3.62800002 0.824 3.28900003
4.25799990 1.56400001 3.48900008
3.85800004 0.954 3.20900011
3.75799990 0.84399998 3.30900002
3.52800012 1.25399995 3.19899988
3.64800000 1.49399996 3.43899989
3.65799999 1.44400001 3.47900009
2.59800005 1.49399996 3.38899994
3.37800002 0.93400002 3.22900009
3.37800002 1.454 3.48900008
2.91799998 1.62399995 3.40899992
2.91799998 1.44400001 3.4690001
2.97799993 1.26400006 3.19899988
3.81800008 0.94400001 3.20900011
3.56800008 0.87400001 3.26900005
4.33799982 1.52400005 3.50900006
4.24800014 1.01400006 3.4690001
3.44799995 1.56400001 3.38899994
2.58800006 1.42400002 3.50900006
4.24800014 1.52400005 3.48900008
3.65799999 1.34399998 3.52900004
3.38800001 1.074 3.20900011
3.87800002 1.08399999 3.20900011
2.80800009 1.12399995 3.20900011
4.08799982 1.78400004 3.16899991
4.35799980 0.94400001 3.35899997
3.88800001 1.09399998 3.20900011
3.71799994 1.34399998 3.53900003
3.37800002 1.574 3.38899994
4.21799994 1.22399998 3.29900002
3.64800000 1.22399998 3.19899988
3.70799994 1.58399999 3.28900003
3.60800004 1.35399997 3.54900002
3.05800009 1.35399997 3.52900004
2.71799994 1.44400001 3.4289999
2.81800008 1.49399996 3.4289999
2.58800006 1.28400004 3.45900011
4.34800005 1.04400003 3.52900004
4.25799990 1.59399998 3.29900002
4.19799995 1.11399996 3.40899992
3.80800009 0.94400001 3.20900011
3.89800000 1.454 3.4690001
3.55800009 0.884 3.26900005
2.78800011 1.33399999 3.50900006
3.95799994 1.50399995 3.4289999
3.92799997 1.64400005 3.23900008
2.62800002 1.44400001 3.40899992
4.08799982 1.63399994 3.28900003
4.24800014 0.92400002 3.27900004
3.24799991 1.21399999 3.19899988
3.07800007 1.26400006 3.19899988
4.29799986 1.65400004 3.38899994
3.50799990 1.09399998 3.20900011
3.87800002 1.43400002 3.51900005
4.33799982 1.65400004 3.44899988
2.56800008 1.12399995 3.4690001
2.52800012 1.66400003 3.43899989
2.85800004 1.35399997 3.51900005
3.16799998 1.46399999 3.47900009
3.88800001 1.33399999 3.48900008
2.55800009 1.26400006 3.23900008
3.26799989 1.454 3.48900008
3.71799994 1.03400004 3.20900011
3.88800001 1.43400002 3.50900006
3.10800004 1.60399997 3.40899992
3.06800008 1.42400002 3.51900005
2.56800008 1.23399997 3.37899995
4.26800013 0.90399998 3.50900006
4.35799980 1.17400002 3.27900004
3.79800010 1.09399998 3.20900011
3.92799997 1.63399994 3.22900009
2.57800007 1.27400005 3.44899988
3.58800006 1.16400003 3.20900011
3.88800001 1.52400005 3.33899999
3.99799991 1.49399996 3.41899991
4.22800016 1.23399997 3.45900011
3.56800008 0.90399998 3.24900007
2.75799990 1.40400004 3.54900002
4.13800001 1.33399999 3.51900005
4.09800005 1.68400002 3.1789999
4.25799990 1.574 3.44899988
2.79800010 1.48399997 3.41899991
2.57800007 1.19400001 3.45900011
4.22800016 1.13399994 3.47900009
4.25799990 0.954 3.36899996
3.88800001 1.74399996 3.19899988
4.04799986 1.65400004 3.2190001
3.83800006 0.83399999 3.35899997
4.35799980 1.324 3.31900001
4.26800013 1.01400006 3.31900001
4.03800011 1.78400004 3.14899993
4.09800005 0.86400002 3.2190001
3.75799990 1.40400004 3.52900004
2.98799992 1.42400002 3.51900005
3.25799990 1.55400002 3.39899993
4.01800013 1.74399996 3.18899989
3.79800010 1.62399995 3.26900005
4.17799997 1.11399996 3.33899999
3.32800007 1.33399999 3.51900005
4.19799995 1.60399997 3.27900004
2.70799994 1.61399996 3.37899995
4.26800013 1.26400006 3.4289999
4.09800005 1.40400004 3.52900004
2.65799999 1.63399994 3.36899996
3.66799998 1.59399998 3.33899999
3.76799989 1.04400003 3.20900011
2.81800008 1.38399994 3.53900003
2.58800006 1.27400005 3.19899988
3.73799992 1.00399995 3.20900011
4.25799990 0.99400002 3.43899989
2.65799999 1.43400002 3.48900008
4.04799986 1.34399998 3.54900002
3.88800001 1.11399996 3.20900011
4.26800013 1.17400002 3.52900004
4.17799997 1.48399997 3.41899991
2.60800004 1.27400005 3.4690001
4.32800007 1.53400004 3.50900006
3.84800005 1.12399995 3.20900011
3.90799999 1.42400002 3.51900005
3.93799996 1.05400002 3.20900011
2.76799989 1.64400005 3.38899994
3.38800001 1.58399999 3.37899995
4.27799988 1.61399996 3.48900008
3.29800010 1.33399999 3.50900006
2.95799994 1.16400003 3.19899988
4.24800014 1.43400002 3.51900005
2.62800002 1.454 3.41899991
3.83800006 0.90399998 3.2190001
4.07800007 1.78400004 3.1789999
3.38800001 1.03400004 3.20900011
3.81800008 1.704 3.29900002
3.34800005 1.27400005 3.19899988
4.25799990 1.58399999 3.35899997
3.46799994 0.954 3.2190001
4.22800016 1.63399994 3.27900004
4.35799980 1.09399998 3.52900004
4.35799980 1.44400001 3.19899988
4.24800014 1.66400003 3.31900001
3.66799998 0.83399999 3.28900003
4.26800013 1.16400003 3.25900006
4.35799980 1.42400002 3.48900008
3.37800002 1.18400002 3.20900011
3.65799999 1.00399995 3.20900011
2.57800007 1.18400002 3.22900009
2.87800002 1.49399996 3.43899989
4.21799994 1.62399995 3.25900006
3.97799993 1.704 3.33899999
2.92799997 1.24399996 3.19899988
3.74799991 1.60399997 3.28900003
3.80800009 1.54400003 3.22900009
4.10799980 1.59399998 3.33899999
3.06800008 1.25399995 3.19899988
3.95799994 1.63399994 3.33899999
2.55800009 1.16400003 3.48900008
4.17799997 1.14400005 3.50900006
3.72799993 1.43400002 3.50900006
4.34800005 1.62399995 3.19899988
4.24800014 1.61399996 3.29900002
3.15799999 1.55400002 3.40899992
4.35799980 1.51400006 3.22900009
3.99799991 1.69400001 3.329
4.35799980 1.62399995 3.38899994
4.25799990 1.58399999 3.30900002
4.26800013 0.98400003 3.31900001
2.54800010 1.64400005 3.41899991
4.01800013 1.50399995 3.40899992
4.35799980 1.50399995 3.37899995
4.15799999 1.84399998 3.2190001
3.67799997 1.11399996 3.20900011
3.71799994 1.44400001 3.48900008
3.45799994 1.11399996 3.20900011
4.35799980 1.40400004 3.16899991
3.61800003 1.24399996 3.19899988
4.35799980 1.61399996 3.27900004
4.35799980 1.52400005 3.18899989
2.52800012 1.36399996 3.52900004
3.57800007 0.99400002 3.2190001
4.26800013 1.60399997 3.44899988
4.26800013 1.02400005 3.41899991
2.79800010 1.08399999 3.20900011
3.96799994 1.44400001 3.49900007
4.16800022 1.574 3.30900002
4.35799980 1.25399995 3.27900004
3.99799991 1.67400002 3.24900007
4.35799980 1.52400005 3.40899992
2.59800005 1.24399996 3.48900008
4.20800018 1.39400005 3.53900003
4.26800013 1.03400004 3.37899995
4.35799980 1.05400002 3.22900009
3.71799994 1.25399995 3.20900011
2.55800009 1.55400002 3.4289999
3.21799994 1.50399995 3.43899989
3.81800008 1.63399994 3.28900003
2.55800009 1.23399997 3.31900001
2.96799994 1.58399999 3.4289999
4.27799988 1.28400004 3.22900009
3.66799998 0.86400002 3.24900007
3.76799989 1.46399999 3.43899989
3.04800010 1.61399996 3.41899991
3.34800005 1.03400004 3.20900011
3.36800003 0.85399997 3.28900003
3.47799993 1.02400005 3.20900011
2.61800003 1.25399995 3.19899988
3.95799994 1.65400004 3.33899999
3.53800011 1.51400006 3.43899989
4.24800014 1.53400004 3.29900002
3.68799996 1.38399994 3.53900003
4.26800013 1.11399996 3.4289999
3.58800006 0.85399997 3.26900005
3.55800009 1.43400002 3.50900006
3.49799991 1.26400006 3.19899988
4.14799976 0.98400003 3.20900011
4.32800007 1.65400004 3.24900007
2.66799998 1.44400001 3.39899993
4.13800001 1.15400004 3.49900007
3.09800005 1.53400004 3.43899989
4.24800014 1.23399997 3.28900003
2.61800003 1.49399996 3.35899997
2.54800010 1.21399999 3.22900009
2.90799999 1.18400002 3.19899988
4.23799992 1.59399998 3.26900005
4.32800007 1.074 3.55900002
3.96799994 1.14400005 3.20900011
4.09800005 1.66400003 3.20900011
4.04799986 1.62399995 3.329
4.35799980 1.15400004 3.41899991
3.40799999 1.08399999 3.20900011
2.67799997 1.324 3.49900007
2.57800007 1.21399999 3.2190001
2.86800003 1.43400002 3.50900006
4.13800001 1.09399998 3.41899991
2.54800010 1.55400002 3.47900009
4.34800005 1.66400003 3.40899992
2.56800008 1.27400005 3.34899998
3.62800002 0.90399998 3.22900009
2.53800011 1.39400005 3.53900003
3.26799989 1.44400001 3.49900007
4.34800005 1.61399996 3.24900007
3.92799997 1.74399996 3.24900007
4.15799999 1.47399998 3.43899989
2.90799999 1.10399997 3.19899988
4.06799984 1.13399994 3.20900011
2.68799996 1.13399994 3.20900011
2.75799990 1.55400002 3.39899993
4.31799984 1.68400002 3.26900005
4.34800005 1.11399996 3.55900002
4.17799997 1.24399996 3.4690001
2.56800008 1.54400003 3.41899991
4.21799994 1.17400002 3.28900003
3.70799994 1.50399995 3.40899992
4.31799984 1.66400003 3.36899996
4.24800014 1.204 3.34899998
4.21799994 1.21399999 3.26900005
3.87800002 1.56400001 3.24900007
2.76799989 1.17400002 3.19899988
3.98799992 1.73399997 3.25900006
4.27799988 1.16400003 3.52900004
2.64800000 1.44400001 3.40899992
3.18799996 1.204 3.19899988
3.79800010 1.204 3.20900011
3.55800009 0.93400002 3.22900009
3.29800010 1.574 3.38899994
3.95799994 1.454 3.47900009
2.95799994 1.44400001 3.50900006
4.09800005 1.22399998 3.49900007
4.03800011 0.92400002 3.20900011
3.89800000 1.53400004 3.33899999
2.53800011 1.38399994 3.52900004
3.73799992 1.50399995 3.39899993
3.83800006 1.704 3.30900002
4.36800003 1.13399994 3.18899989
4.26800013 1.12399995 3.24900007
3.34800005 1.22399998 3.20900011
4.35799980 1.05400002 3.40899992
3.54800010 1.41400003 3.52900004
4.35799980 1.62399995 3.41899991
3.33800006 1.12399995 3.20900011
3.41799998 1.09399998 3.20900011
3.03800011 1.50399995 3.4690001
3.52800012 1.36399996 3.54900002
3.05800009 1.54400003 3.44899988
3.92799997 1.51400006 3.35899997
3.14800000 1.40400004 3.53900003
2.81800008 1.41400003 3.53900003
4.29799986 1.15400004 3.54900002
2.98799992 1.33399999 3.51900005
3.61800003 1.62399995 3.35899997
3.99799991 1.37399995 3.54900002
4.27799988 1.30400002 3.36899996
3.24799991 1.34399998 3.51900005
2.55800009 1.574 3.4289999
4.36800003 1.15400004 3.19899988
4.07800007 1.24399996 3.48900008
2.75799990 1.63399994 3.38899994
4.35799980 1.19400001 3.329
3.81800008 1.46399999 3.43899989
3.98799992 1.55400002 3.38899994
4.09800005 1.074 3.20900011
3.87800002 0.86400002 3.26900005
3.79800010 1.61399996 3.1789999
2.70799994 1.58399999 3.37899995
4.32800007 1.64400005 3.18899989
3.12800002 1.19400001 3.19899988
4.35799980 1.49399996 3.40899992
4.26800013 1.10399997 3.48900008
4.02799988 1.79400003 3.14899993
3.35800004 0.93400002 3.23900008
4.17799997 1.18400002 3.37899995
2.64800000 1.18400002 3.20900011
3.42799997 0.86400002 3.27900004
2.65799999 1.28400004 3.19899988
3.36800003 1.05400002 3.20900011
4.27799988 1.06400001 3.37899995
2.55800009 1.22399998 3.49900007
3.73799992 0.83399999 3.34899998
2.59800005 1.21399999 3.4690001
4.15799999 1.54400003 3.34899998
4.00799990 0.90399998 3.24900007
4.15799999 1.34399998 3.51900005
2.57800007 1.14400005 3.47900009
3.11800003 1.17400002 3.20900011
3.70799994 1.56400001 3.15899992
2.90799999 1.55400002 3.43899989
3.93799996 1.12399995 3.20900011
4.35799980 1.31400001 3.329
4.27799988 1.074 3.29900002
4.28800011 0.87400001 3.53900003
3.62800002 1.574 3.329
4.36800003 1.11399996 3.14899993
4.24800014 1.55400002 3.25900006
3.27800012 0.84399998 3.29900002
4.23799992 1.18400002 3.53900003
4.27799988 1.05400002 3.28900003
4.35799980 1.19400001 3.40899992
2.86800003 1.44400001 3.49900007
4.12799978 1.26400006 3.20900011
4.06799984 1.25399995 3.48900008
4.34800005 0.90399998 3.45900011
3.58800006 1.04400003 3.20900011
4.15799999 0.90399998 3.2190001
4.24800014 0.94400001 3.37899995
3.53800011 1.50399995 3.44899988
3.71799994 1.60399997 3.329
4.09800005 1.26400006 3.47900009
4.13800001 0.954 3.20900011
4.27799988 1.11399996 3.49900007
2.91799998 1.23399997 3.19899988
3.76799989 0.86400002 3.24900007
3.39800000 1.43400002 3.50900006
4.06799984 1.69400001 3.1789999
2.56800008 1.25399995 3.37899995
3.90799999 1.204 3.20900011
3.94799995 1.59399998 3.33899999
2.54800010 1.17400002 3.25900006
4.14799976 1.83399999 3.16899991
4.31799984 1.69400001 3.25900006
3.47799993 1.10399997 3.20900011
3.11800003 1.49399996 3.45900011
2.85800004 1.50399995 3.4289999
3.87800002 1.37399995 3.54900002
4.02799988 1.65400004 3.31900001
4.26800013 1.38399994 3.54900002
3.81800008 1.34399998 3.52900004
3.65799999 1.58399999 3.329
3.02800012 1.11399996 3.19899988
2.56800008 1.37399995 3.51900005
3.64800000 1.33399999 3.50900006
3.89800000 1.54400003 3.29900002
4.35799980 1.02400005 3.30900002
3.64800000 1.35399997 3.53900003
2.82800007 1.27400005 3.19899988
3.37800002 1.23399997 3.20900011
2.62800002 1.24399996 3.19899988
3.26799989 1.33399999 3.51900005
3.47799993 0.90399998 3.25900006
4.11800003 1.12399995 3.48900008
2.57800007 1.26400006 3.4289999
3.84800005 1.05400002 3.20900011
4.26800013 1.21399999 3.20900011
3.47799993 1.17400002 3.20900011
4.18800020 1.10399997 3.50900006
4.14799976 1.09399998 3.40899992
2.55800009 1.27400005 3.24900007
4.07800007 1.12399995 3.20900011
4.35799980 0.884 3.19899988
2.76799989 1.60399997 3.38899994
4.29799986 0.89399999 3.54900002
2.59800005 1.42400002 3.48900008
4.18800020 1.01400006 3.20900011
4.35799980 1.11399996 3.4690001
3.78800011 0.85399997 3.23900008
3.92799997 1.59399998 3.29900002
2.64800000 1.34399998 3.50900006
4.26800013 1.14400005 3.49900007
4.05800009 1.11399996 3.20900011
2.74799991 1.56400001 3.39899993
2.55800009 1.21399999 3.26900005
3.34800005 1.13399994 3.20900011
3.91799998 0.91399997 3.23900008
3.60800004 1.25399995 3.19899988
4.34800005 1.65400004 3.34899998
2.98799992 1.64400005 3.40899992
3.79800010 1.074 3.20900011
2.69799995 1.44400001 3.40899992
3.35800004 1.18400002 3.20900011
3.91799998 1.56400001 3.27900004
3.19799995 1.33399999 3.49900007
3.75799990 1.00399995 3.20900011
3.77800012 0.954 3.20900011
3.99799991 1.02400005 3.20900011
4.00799990 1.67400002 3.26900005
4.27799988 1.15400004 3.51900005
2.56800008 1.19400001 3.49900007
2.58800006 1.56400001 3.36899996
2.99799991 1.16400003 3.19899988
3.46799994 1.06400001 3.20900011
4.35799980 1.16400003 3.43899989
3.39800000 1.26400006 3.19899988
4.16800022 1.204 3.20900011
4.34800005 1.21399999 3.54900002
4.11800003 1.80400002 3.2190001
2.84800005 1.204 3.19899988
4.35799980 1.324 3.52900004
4.36800003 1.21399999 3.22900009
2.55800009 1.17400002 3.40899992
2.83800006 1.33399999 3.50900006
4.09800005 1.56400001 3.34899998
3.56800008 1.52400005 3.43899989
2.84800005 1.324 3.49900007
3.86800003 1.43400002 3.50900006
4.36800003 1.28400004 3.18899989
3.31800008 1.33399999 3.50900006
2.94799995 1.36399996 3.52900004
4.05800009 1.05400002 3.20900011
2.59800005 1.30400002 3.45900011
2.58800006 1.19400001 3.4690001
3.61800003 1.53400004 3.41899991
3.78800011 0.89399999 3.2190001
2.56800008 1.53400004 3.4289999
3.59800005 1.34399998 3.53900003
4.03800011 1.68400002 3.19899988
3.85800004 0.84399998 3.28900003
3.50799990 1.12399995 3.20900011
3.62800002 1.56400001 3.37899995
4.00799990 0.99400002 3.20900011
4.32800007 1.25399995 3.54900002
4.34800005 1.37399995 3.52900004
4.35799980 1.03400004 3.39899993
4.35799980 1.34399998 3.30900002
4.22800016 1.12399995 3.30900002
4.26800013 1.15400004 3.50900006
3.80800009 1.11399996 3.20900011
3.09800005 1.35399997 3.52900004
3.30800009 1.52400005 3.4289999
4.35799980 1.01400006 3.48900008
4.20800018 1.454 3.48900008
4.25799990 1.47399998 3.51900005
4.29799986 1.27400005 3.52900004
2.68799996 1.22399998 3.19899988
2.92799997 1.11399996 3.19899988
3.43799996 0.94400001 3.22900009
4.36800003 1.34399998 3.23900008
3.95799994 1.46399999 3.44899988
4.08799982 0.884 3.2190001
4.10799980 1.80400002 3.22900009
4.03800011 1.65400004 3.2190001
3.56800008 1.46399999 3.48900008
4.24800014 0.92400002 3.35899997
3.71799994 1.49399996 3.40899992
4.15799999 1.83399999 3.24900007
