# .PCD v0.7 - Point Cloud Data file format
VERSION 0.7
FIELDS x y z
SIZE 4 4 4
TYPE F F F
COUNT 1 1 1
WIDTH 1440
HEIGHT 1
VIEWPOINT 0 0 0 1 0 0 0
POINTS 1440
DATA ascii
0.82800001 1.01400006 2.87899995
0.79799998 1.59399998 3.03900003
1.63800001 1.50399995 3.12899995
0.95800000 1.23399997 3.05900002
2.08800006 1.41400003 2.77900004
2.47799993 0.954 2.79900002
1.42799997 0.97399998 3.10899997
2.29800010 0.89399999 3.09899998
1.15799999 1.17400002 3.05900002
2.12800002 1.60399997 2.93899989
1.37800002 1.36399996 2.78900003
1.58800006 0.91399997 3.10899997
0.97799999 0.98400003 2.93899989
1.90799999 0.824 2.77900004
2.32800007 0.94400001 3.09899998
2.08800006 0.80400002 2.85899997
1.31799996 0.83399999 3.079
1.24800003 1.13399994 3.079
1.88800001 1.50399995 3.11899996
0.66799998 1.66400003 3.02900004
1.79799998 0.87400001 3.09899998
0.69800001 1.33399999 2.78900003
0.67799997 1.204 2.77900004
1.97800004 1.42400002 2.78900003
1.78799999 1.51400006 3.12899995
0.70800000 1.40400004 2.79900002
2.05800009 1.10399997 3.10899997
0.85799998 0.86400002 2.87899995
2.29800010 0.884 3.09899998
0.70800000 1.27400005 2.88899994
1.80799997 1.44400001 2.83899999
0.97799999 1.46399999 3.00900006
2.34800005 0.85399997 3.08899999
0.74800003 1.56400001 2.94899988
0.73799998 1.38399994 2.80900002
0.89800000 1.34399998 2.80900002
1.24800003 1.204 3.09899998
2.18799996 0.81400001 2.81900001
0.96799999 1.46399999 2.97900009
1.71800005 1.53400004 3.12899995
1.84800005 1.03400004 3.10899997
2.45799994 0.90399998 3.06900001
1.48800004 0.85399997 3.06900001
1.48800004 1.23399997 3.10899997
1.49800003 1.05400002 3.11899996
1.37800002 1.12399995 3.10899997
1.56799996 1.08399999 3.10899997
2.17799997 1.59399998 2.91899991
1.93799996 0.824 3.08899999
2.26799989 1.40400004 2.76900005
1.81799996 1.54400003 3.11899996
2.30800009 1.58399999 2.89899993
1.20799994 1.074 3.04900002
2.54800010 1.41400003 2.76900005
1.35800004 1.58399999 3.12899995
0.89800000 1.21399999 3.04900002
0.85799998 0.87400001 2.86899996
2.15799999 1.41400003 2.78900003
2.47799993 1.02400005 2.84899998
0.82800001 1.38399994 2.79900002
2.22799993 1.574 2.90899992
2.09800005 1.46399999 2.94899988
1.73800004 1.55400002 3.11899996
0.85799998 0.83399999 2.88899994
0.90799999 1.50399995 3.01900005
2.04800010 0.80400002 2.84899998
1.12800002 1.34399998 2.78900003
0.74800003 1.50399995 2.95900011
1.20799994 0.81400001 3.03900003
1.40799999 1.074 3.10899997
1.70799994 1.36399996 2.77900004
1.48800004 1.24399996 3.10899997
0.69800001 1.10399997 2.87899995
1.25800002 0.954 3.05900002
2.33800006 1.10399997 3.10899997
2.38800001 1.51400006 2.94899988
2.44799995 1.324 2.77900004
0.76800001 1.62399995 3.04900002
1.51800001 0.97399998 3.11899996
2.47799993 0.92400002 2.81900001
0.77800000 1.35399997 2.81900001
1.24800003 0.98400003 3.05900002
2.20799994 1.34399998 2.76900005
1.40799999 0.99400002 3.10899997
0.73799998 1.36399996 2.80900002
2.45799994 1.14400005 2.76900005
1.90799999 1.05400002 3.10899997
1.23800004 0.954 3.03900003
1.79799998 1.44400001 2.85899997
1.00800002 0.954 2.93899989
1.88800001 1.17400002 3.10899997
2.18799996 1.17400002 3.09899998
2.20799994 1.37399995 2.75900006
0.68800002 1.63399994 2.87899995
0.98799998 0.99400002 2.93899989
2.04800010 1.44400001 2.9289999
1.62800002 1.36399996 2.77900004
1.86800003 1.38399994 2.77900004
0.92799997 1.47399998 2.97900009
0.71799999 1.62399995 2.95900011
0.70800000 1.23399997 2.90899992
0.77800000 1.21399999 3.02900004
1.27800000 0.93400002 3.06900001
1.57799995 1.52400005 3.14899993
0.83800000 1.06400001 2.89899993
1.53799999 1.19400001 3.10899997
1.37800002 1.39400005 2.77900004
2.47799993 0.824 2.79900002
0.93800002 1.16400003 2.95900011
1.16799998 0.954 3.00900006
0.66799998 1.65400004 3.11899996
1.12800002 0.96399999 2.98900008
1.95799994 1.14400005 3.10899997
2.45799994 1.34399998 2.76900005
1.34800005 0.94400001 3.09899998
2.06800008 1.19400001 3.10899997
2.15799999 0.81400001 3.10899997
0.72799999 0.91399997 2.829
2.20799994 1.49399996 2.85899997
2.13800001 0.81400001 2.76900005
0.82800001 1.19400001 3.02900004
1.16799998 0.86400002 2.98900008
2.02800012 1.40400004 2.77900004
1.19799995 1.14400005 3.05900002
2.52800012 1.29400003 2.76900005
2.46799994 0.92400002 2.94899988
2.30800009 1.19400001 3.09899998
1.04799998 1.34399998 2.79900002
0.79799998 1.34399998 2.829
2.28800011 1.49399996 2.88899994
2.05800009 0.80400002 2.86899996
0.97799999 1.61399996 3.14899993
1.63800001 1.44400001 2.79900002
0.80800003 1.62399995 3.11899996
1.95799994 0.91399997 3.10899997
1.19799995 1.38399994 2.79900002
0.82800001 1.62399995 3.13899994
0.77800000 0.824 2.829
1.47800004 1.62399995 3.10899997
1.97800004 1.204 3.10899997
2.37800002 1.37399995 2.75900006
2.46799994 1.59399998 2.78900003
2.11800003 0.96399999 3.10899997
1.48800004 0.97399998 3.11899996
1.00800002 0.84399998 2.94899988
0.77800000 0.85399997 2.83899999
0.70800000 1.23399997 2.84899998
2.52800012 0.98400003 2.77900004
0.91799998 1.55400002 3.11899996
1.71800005 0.83399999 3.079
1.37800002 0.99400002 3.10899997
0.71799999 1.00399995 2.84899998
2.21799994 0.80400002 2.829
2.20799994 1.46399999 2.83899999
1.56799996 1.55400002 3.12899995
0.67799997 0.884 2.79900002
2.31800008 0.80400002 2.90899992
2.47799993 0.824 2.74900007
2.21799994 1.51400006 2.87899995
2.43799996 1.26400006 2.77900004
0.69800001 1.50399995 2.84899998
2.00799990 0.81400001 3.08899999
0.79799998 0.91399997 2.85899997
2.53800011 1.13399994 2.77900004
0.74800003 1.65400004 3.10899997
1.58800006 1.40400004 2.76900005
1.06799996 0.86400002 2.95900011
1.16799998 0.96399999 3.00900006
1.59800005 1.14400005 3.10899997
1.89800000 0.81400001 2.80900002
1.35800004 1.35399997 2.78900003
1.02800000 1.22399998 3.04900002
2.39800000 1.39400005 2.76900005
1.28799999 1.23399997 3.10899997
0.76800001 1.574 2.94899988
0.93800002 0.93400002 2.90899992
1.51800001 1.02400005 3.11899996
0.67799997 1.43400002 2.77900004
2.30800009 0.884 3.09899998
0.70800000 0.98400003 2.83899999
2.36800003 0.87400001 3.08899999
0.85799998 1.00399995 2.89899993
2.47799993 1.65400004 2.81900001
1.64800000 1.48399997 3.10899997
0.65799999 1.69400001 2.78900003
0.75800002 1.63399994 3.04900002
1.83800006 1.08399999 3.10899997
1.82799995 1.08399999 3.10899997
0.67799997 0.954 2.76900005
1.49800003 1.204 3.10899997
1.14800000 0.824 3.01900005
2.44799995 1.09399998 2.76900005
1.68799996 1.51400006 3.12899995
0.72799999 1.24399996 2.93899989
1.41799998 1.11399996 3.10899997
2.41799998 1.58399999 2.9289999
2.09800005 1.41400003 2.78900003
1.37800002 0.92400002 3.09899998
0.99800003 1.48399997 3.079
0.77800000 1.17400002 2.89899993
0.67799997 0.86400002 2.78900003
0.86799997 0.884 2.87899995
1.96800005 0.94400001 3.10899997
2.16799998 0.89399999 3.10899997
0.98799998 1.51400006 3.13899994
2.54800010 0.87400001 2.76900005
1.66799998 1.43400002 2.79900002
2.22799993 1.63399994 2.91899991
0.81800002 1.41400003 2.79900002
2.46799994 0.86400002 2.95900011
2.02800012 0.87400001 3.10899997
2.02800012 1.01400006 3.10899997
1.03799999 1.05400002 2.97900009
1.78799999 1.35399997 2.76900005
1.19799995 0.84399998 3.01900005
1.45799994 1.01400006 3.11899996
1.08800006 1.35399997 2.79900002
2.46799994 0.91399997 3.00900006
2.13800001 1.34399998 2.76900005
1.56799996 1.204 3.10899997
1.32799995 1.38399994 2.77900004
1.22800004 1.17400002 3.079
1.05799997 1.35399997 2.79900002
1.67799997 1.38399994 2.78900003
1.48800004 1.40400004 2.76900005
1.01800001 1.204 2.99900007
0.68800002 1.49399996 2.78900003
0.67799997 1.65400004 2.98900008
1.29799998 0.90399998 3.079
1.11800003 1.00399995 2.99900007
2.22799993 1.42400002 2.78900003
2.43799996 1.15400004 3.09899998
2.37800002 1.10399997 3.10899997
0.94800001 1.074 2.94899988
1.86800003 0.93400002 3.10899997
0.91799998 1.05400002 2.9289999
2.17799997 1.41400003 2.829
1.29799998 1.55400002 3.13899994
1.30799997 1.14400005 3.10899997
2.26799989 0.86400002 3.09899998
0.70800000 1.65400004 3.08899999
0.71799999 1.66400003 3.13899994
0.80800003 1.47399998 2.95900011
1.83800006 0.83399999 3.08899999
2.47799993 0.91399997 2.81900001
2.47799993 1.00399995 2.84899998
1.28799999 1.12399995 3.09899998
1.92799997 0.93400002 3.10899997
0.80800003 1.36399996 2.829
2.39800000 1.03400004 3.10899997
1.41799998 0.92400002 3.04900002
2.46799994 1.03400004 3.02900004
2.20799994 1.37399995 2.76900005
1.50800002 1.09399998 3.11899996
0.84799999 1.53400004 2.98900008
2.21799994 0.80400002 2.86899996
1.61800003 1.41400003 2.79900002
2.31800008 0.80400002 2.91899991
2.46799994 1.19400001 3.06900001
2.47799993 1.12399995 2.89899993
2.03800011 1.52400005 2.9289999
1.89800000 1.18400002 3.10899997
0.96799999 1.50399995 3.079
1.48800004 1.574 3.12899995
0.66799998 1.67400002 2.80900002
1.14800000 1.37399995 2.79900002
1.39800000 1.12399995 3.10899997
1.20799994 0.92400002 3.00900006
0.66799998 0.85399997 2.78900003
2.46799994 0.97399998 3.00900006
1.82799995 0.89399999 3.10899997
2.16799998 1.11399996 3.10899997
0.66799998 1.574 2.78900003
2.47799993 1.00399995 2.75900006
1.32799995 0.93400002 3.09899998
2.45799994 1.00399995 2.78900003
2.46799994 0.81400001 2.94899988
2.20799994 0.93400002 3.10899997
2.47799993 1.074 2.89899993
1.41799998 1.33399999 2.79900002
0.67799997 1.52400005 2.77900004
1.55799997 0.84399998 3.08899999
2.46799994 1.10399997 3.079
1.61800003 1.38399994 2.78900003
1.55799997 0.824 3.079
1.54799998 1.204 3.10899997
2.22799993 1.13399994 3.10899997
2.19799995 0.80400002 2.86899996
0.82800001 1.09399998 2.90899992
1.89800000 1.43400002 2.80900002
2.19799995 0.84399998 3.10899997
1.02800000 1.04400003 2.9690001
1.92799997 1.42400002 2.81900001
0.97799999 1.454 2.98900008
1.28799999 1.18400002 3.10899997
2.24799991 1.574 2.88899994
2.46799994 1.15400004 3.04900002
2.01799989 0.92400002 3.10899997
0.96799999 0.90399998 2.91899991
0.86799997 0.81400001 2.89899993
0.96799999 1.15400004 2.9690001
0.93800002 1.03400004 2.9289999
1.71800005 1.454 2.80900002
2.42799997 1.24399996 3.079
2.50799990 1.204 2.75900006
2.12800002 0.81400001 3.079
0.93800002 1.204 2.99900007
2.21799994 1.41400003 2.84899998
2.22799993 1.63399994 2.9289999
0.81800002 1.19400001 3.01900005
2.17799997 1.33399999 2.77900004
0.87800002 0.98400003 2.89899993
1.32799995 1.074 3.10899997
2.52800012 1.49399996 2.76900005
1.13800001 0.81400001 3.01900005
0.78799999 1.22399998 3.03900003
2.03800011 0.824 3.09899998
1.11800003 1.54400003 3.13899994
1.66799998 1.17400002 3.10899997
1.59800005 1.55400002 3.12899995
1.31799996 1.01400006 3.09899998
1.09800005 1.074 3.00900006
2.13800001 0.80400002 2.81900001
1.13800001 1.60399997 3.13899994
2.21799994 1.03400004 3.10899997
2.46799994 1.19400001 2.86899996
1.56799996 1.17400002 3.10899997
1.08800006 1.10399997 3.00900006
2.48799992 1.34399998 2.75900006
1.10800004 1.62399995 3.14899993
2.40799999 0.91399997 3.08899999
1.88800001 1.15400004 3.10899997
0.65799999 1.67400002 2.88899994
1.36800003 1.36399996 2.78900003
1.74800003 1.50399995 3.11899996
1.80799997 1.35399997 2.76900005
1.73800004 1.43400002 2.79900002
1.35800004 1.34399998 2.79900002
2.47799993 1.10399997 2.90899992
2.12800002 1.05400002 3.10899997
1.70799994 1.16400003 3.10899997
0.71799999 1.24399996 2.91899991
0.78799999 1.18400002 2.94899988
1.62800002 1.47399998 3.10899997
1.96800005 0.954 3.10899997
2.04800010 1.04400003 3.10899997
2.47799993 1.19400001 2.75900006
0.99800003 0.99400002 2.94899988
2.18799996 1.37399995 2.76900005
0.82800001 1.15400004 2.91899991
1.14800000 1.23399997 3.079
0.73799998 1.22399998 2.98900008
1.71800005 1.454 2.81900001
1.04799998 1.15400004 2.99900007
2.25799990 0.80400002 2.83899999
1.98800004 1.19400001 3.10899997
1.07799995 1.01400006 2.98900008
0.69800001 1.11399996 2.87899995
1.87800002 0.94400001 3.10899997
1.10800004 1.10399997 3.00900006
1.55799997 0.90399998 3.09899998
2.18799996 0.89399999 3.10899997
1.94799995 1.40400004 2.77900004
1.11800003 0.99400002 2.98900008
1.39800000 0.89399999 3.04900002
0.78799999 1.204 2.98900008
2.29800010 1.62399995 2.89899993
0.90799999 1.51400006 3.02900004
1.59800005 1.16400003 3.10899997
0.99800003 1.55400002 3.13899994
2.13800001 0.92400002 3.10899997
1.83800006 1.18400002 3.10899997
0.71799999 1.53400004 2.93899989
2.29800010 1.38399994 2.76900005
1.25800002 1.40400004 2.79900002
2.40799999 1.67400002 2.91899991
2.21799994 1.00399995 3.10899997
0.70800000 1.25399995 2.90899992
2.34800005 1.454 2.89899993
1.17799997 0.97399998 3.01900005
1.60800004 1.24399996 3.10899997
2.32800007 1.46399999 2.78900003
1.76800001 1.09399998 3.10899997
0.95800000 1.10399997 2.94899988
1.24800003 0.884 3.02900004
1.98800004 0.824 3.09899998
1.55799997 1.35399997 2.77900004
2.44799995 1.17400002 2.77900004
1.70799994 0.99400002 3.10899997
1.99800003 0.85399997 3.10899997
1.45799994 0.954 3.09899998
2.12800002 0.80400002 2.80900002
1.90799999 0.85399997 3.09899998
2.14800000 1.56400001 2.91899991
1.85800004 1.35399997 2.76900005
2.30800009 0.86400002 3.09899998
1.56799996 1.38399994 2.78900003
1.94799995 1.54400003 3.10899997
2.20799994 1.21399999 3.09899998
2.52800012 1.03400004 2.76900005
2.08800006 1.204 3.09899998
2.15799999 0.91399997 3.10899997
0.97799999 1.12399995 2.9690001
2.19799995 1.42400002 2.83899999
0.95800000 1.48399997 3.03900003
2.11800003 1.42400002 2.78900003
0.84799999 1.51400006 2.95900011
2.16799998 1.61399996 2.9289999
1.17799997 1.06400001 3.03900003
1.13800001 0.94400001 2.99900007
1.39800000 0.97399998 3.10899997
2.39800000 1.454 2.77900004
1.24800003 1.02400005 3.05900002
2.46799994 0.98400003 3.01900005
2.13800001 0.80400002 2.87899995
0.85799998 0.89399999 2.86899996
0.81800002 1.14400005 2.90899992
2.47799993 1.19400001 2.99900007
0.95800000 1.62399995 3.14899993
0.94800001 0.85399997 2.9289999
0.72799999 0.85399997 2.80900002
1.48800004 1.22399998 3.10899997
2.17799997 1.24399996 3.08899999
1.19799995 1.62399995 3.11899996
1.42799997 0.94400001 3.10899997
2.12800002 1.56400001 2.91899991
1.60800004 1.02400005 3.10899997
1.21800005 0.99400002 3.03900003
1.26800001 1.074 3.08899999
2.05800009 1.22399998 3.09899998
2.29800010 0.80400002 2.85899997
1.37800002 1.62399995 3.10899997
0.88800001 1.35399997 2.79900002
0.65799999 0.98400003 2.75900006
1.49800003 0.84399998 3.05900002
2.22799993 1.46399999 2.86899996
2.00799990 0.954 3.10899997
2.18799996 0.954 3.10899997
0.95800000 1.56400001 3.13899994
2.32800007 1.12399995 3.10899997
2.51799989 0.97399998 2.76900005
2.48799992 0.92400002 2.74900007
0.90799999 1.50399995 3.00900006
1.47800004 0.89399999 3.09899998
0.76800001 0.96399999 2.85899997
0.95800000 0.84399998 2.93899989
0.74800003 1.48399997 2.95900011
1.70799994 0.884 3.09899998
2.02800012 1.13399994 3.10899997
2.05800009 0.81400001 3.09899998
2.47799993 1.27400005 2.94899988
0.82800001 1.18400002 2.9289999
2.04800010 0.80400002 2.89899993
2.46799994 0.97399998 3.04900002
1.41799998 1.35399997 2.78900003
2.12800002 0.80400002 2.85899997
2.36800003 1.11399996 3.10899997
2.31800008 1.63399994 2.90899992
1.62800002 0.884 3.09899998
1.33800006 0.81400001 3.08899999
1.43799996 1.01400006 3.11899996
0.73799998 1.10399997 2.88899994
2.47799993 0.98400003 2.88899994
1.33800006 1.05400002 3.10899997
1.78799999 1.44400001 2.84899998
0.70800000 1.21399999 2.829
1.60800004 1.34399998 2.78900003
1.75800002 0.93400002 3.10899997
1.15799999 1.00399995 3.00900006
0.66799998 1.66400003 3.04900002
1.20799994 0.884 3.00900006
2.18799996 1.454 2.83899999
1.32799995 1.00399995 3.09899998
1.50800002 1.41400003 2.78900003
2.25799990 0.954 3.10899997
2.44799995 1.42400002 2.75900006
0.70800000 1.204 2.89899993
0.72799999 1.65400004 3.10899997
2.26799989 1.454 2.88899994
2.04800010 1.46399999 2.93899989
2.53800011 1.35399997 2.76900005
2.11800003 1.52400005 2.9289999
1.17799997 1.12399995 3.04900002
1.02800000 1.09399998 2.98900008
1.49800003 1.16400003 3.10899997
2.09800005 1.19400001 3.09899998
1.74800003 1.00399995 3.10899997
1.93799996 1.24399996 3.09899998
1.38800001 1.18400002 3.10899997
1.71800005 1.454 2.829
1.87800002 1.21399999 3.10899997
1.89800000 0.884 3.10899997
2.44799995 1.10399997 2.77900004
1.25800002 1.02400005 3.06900001
2.50799990 1.24399996 2.75900006
2.47799993 0.92400002 2.87899995
2.20799994 0.80400002 2.89899993
1.20799994 1.37399995 2.78900003
2.02800012 1.49399996 2.9289999
1.70799994 0.824 3.079
1.44799995 1.16400003 3.10899997
0.67799997 0.94400001 2.81900001
1.12800002 0.92400002 2.97900009
0.93800002 1.01400006 2.9289999
1.23800004 0.87400001 3.02900004
1.93799996 0.83399999 3.09899998
2.33800006 1.42400002 2.77900004
2.25799990 1.56400001 2.86899996
1.23800004 0.87400001 3.01900005
0.77800000 1.56400001 2.94899988
1.69799995 1.00399995 3.10899997
1.64800000 1.15400004 3.10899997
1.26800001 0.96399999 3.05900002
2.46799994 0.884 2.89899993
2.39800000 1.52400005 2.95900011
1.76800001 0.884 3.10899997
1.58800006 1.55400002 3.12899995
1.73800004 1.44400001 2.81900001
2.29800010 0.93400002 3.10899997
0.68800002 1.65400004 2.89899993
1.73800004 1.34399998 2.77900004
2.22799993 0.80400002 2.81900001
1.01800001 0.85399997 2.93899989
1.84800005 1.42400002 2.78900003
2.38800001 0.81400001 3.079
2.42799997 1.43400002 2.76900005
1.68799996 0.90399998 3.10899997
1.76800001 1.18400002 3.10899997
2.25799990 1.04400003 3.10899997
1.42799997 1.04400003 3.11899996
1.14800000 1.15400004 3.03900003
2.33800006 1.47399998 2.78900003
2.26799989 0.884 3.09899998
1.55799997 1.34399998 2.78900003
1.81799996 1.17400002 3.10899997
0.77800000 1.61399996 3.05900002
1.39800000 0.92400002 3.079
2.11800003 1.454 2.91899991
1.13800001 1.16400003 3.03900003
2.47799993 1.22399998 2.93899989
1.97800004 1.02400005 3.10899997
1.88800001 1.05400002 3.10899997
2.46799994 0.83399999 2.9690001
1.39800000 1.56400001 3.13899994
2.10800004 1.43400002 2.90899992
2.46799994 1.14400005 3.03900003
1.04799998 1.05400002 2.97900009
1.37800002 0.96399999 3.10899997
1.76800001 1.204 3.10899997
1.88800001 0.97399998 3.10899997
1.44799995 1.58399999 3.12899995
0.67799997 1.54400003 2.79900002
2.41799998 1.37399995 2.75900006
0.85799998 1.06400001 2.90899992
0.98799998 1.48399997 3.05900002
2.27800012 1.41400003 2.77900004
1.36800003 1.04400003 3.10899997
2.44799995 1.17400002 2.83899999
0.74800003 1.65400004 3.079
2.54800010 1.26400006 2.76900005
2.47799993 1.08399999 2.90899992
2.20799994 0.80400002 2.88899994
0.67799997 1.60399997 2.80900002
0.75800002 1.22399998 3.00900006
1.13800001 0.85399997 2.98900008
0.67799997 1.00399995 2.76900005
2.22799993 1.10399997 3.10899997
0.83800000 0.80400002 2.86899996
1.96800005 1.36399996 2.76900005
2.54800010 1.56400001 2.77900004
0.91799998 1.39400005 2.79900002
1.49800003 0.93400002 3.10899997
1.79799998 0.884 3.10899997
0.89800000 1.574 3.12899995
1.69799995 1.15400004 3.10899997
0.72799999 1.37399995 2.80900002
1.76800001 1.44400001 2.84899998
0.94800001 1.204 3.02900004
2.14800000 1.06400001 3.10899997
0.80800003 1.10399997 2.89899993
2.15799999 1.15400004 3.10899997
2.43799996 1.62399995 2.88899994
2.42799997 1.23399997 2.79900002
2.52800012 1.33399999 2.75900006
0.73799998 1.41400003 2.79900002
2.52800012 1.01400006 2.77900004
2.10800004 0.81400001 2.77900004
1.89800000 0.824 3.09899998
1.72800004 1.13399994 3.10899997
1.49800003 1.09399998 3.11899996
1.12800002 1.06400001 3.01900005
1.76800001 1.13399994 3.10899997
1.40799999 1.18400002 3.10899997
1.84800005 0.99400002 3.10899997
2.41799998 1.60399997 2.9289999
1.53799999 1.43400002 2.79900002
0.75800002 0.97399998 2.85899997
2.26799989 0.824 3.09899998
0.69800001 1.15400004 2.85899997
2.27800012 0.89399999 3.09899998
1.62800002 1.33399999 2.79900002
1.04799998 0.99400002 2.9690001
0.91799998 1.43400002 2.94899988
1.65799999 0.84399998 3.079
1.12800002 1.574 3.13899994
1.45799994 1.17400002 3.10899997
0.96799999 1.52400005 3.11899996
0.67799997 1.65400004 2.88899994
1.38800001 1.13399994 3.10899997
2.03800011 1.574 2.95900011
1.00800002 0.94400001 2.93899989
1.58800006 1.18400002 3.10899997
0.72799999 1.64400005 3.03900003
2.31800008 0.92400002 3.09899998
2.46799994 1.10399997 3.06900001
0.98799998 1.39400005 2.79900002
0.65799999 1.42400002 2.74900007
2.18799996 1.42400002 2.78900003
1.16799998 1.02400005 3.01900005
1.00800002 1.34399998 2.79900002
1.33800006 1.23399997 3.10899997
1.39800000 0.884 3.04900002
1.29799998 1.00399995 3.09899998
1.20799994 1.61399996 3.11899996
0.97799999 1.204 2.98900008
1.87800002 1.35399997 2.76900005
2.48799992 1.37399995 2.75900006
2.31800008 1.56400001 2.90899992
1.31799996 1.53400004 3.14899993
0.72799999 1.46399999 2.9289999
0.81800002 1.58399999 3.06900001
1.72800004 0.83399999 3.079
1.90799999 0.86400002 3.10899997
2.50799990 1.02400005 2.76900005
0.87800002 1.204 2.99900007
2.15799999 1.47399998 2.89899993
1.24800003 1.39400005 2.79900002
0.67799997 0.94400001 2.76900005
1.72800004 1.454 2.81900001
1.34800005 1.09399998 3.10899997
0.75800002 1.46399999 2.95900011
2.14800000 1.33399999 2.78900003
2.47799993 1.26400006 2.93899989
1.97800004 1.35399997 2.76900005
1.90799999 0.80400002 2.84899998
0.76800001 1.454 2.95900011
1.96800005 0.84399998 3.10899997
2.48799992 1.47399998 2.76900005
1.14800000 1.56400001 3.12899995
2.46799994 1.15400004 2.76900005
2.19799995 1.52400005 2.89899993
1.85800004 0.83399999 3.09899998
1.57799995 1.61399996 3.10899997
0.88800001 0.81400001 2.90899992
1.21800005 1.12399995 3.05900002
0.79799998 1.58399999 3.01900005
0.74800003 0.824 2.81900001
2.46799994 0.87400001 2.95900011
0.69800001 1.55400002 2.87899995
2.17799997 1.34399998 2.76900005
1.13800001 1.36399996 2.78900003
2.11800003 0.83399999 3.10899997
0.88800001 1.574 3.12899995
0.70800000 1.54400003 2.90899992
1.31799996 1.37399995 2.79900002
1.02800000 0.86400002 2.94899988
0.73799998 1.574 2.94899988
1.90799999 0.80400002 2.83899999
0.83800000 1.03400004 2.89899993
2.47799993 0.81400001 2.78900003
2.29800010 1.21399999 3.08899999
1.75800002 1.16400003 3.10899997
1.22800004 1.08399999 3.05900002
0.99800003 0.85399997 2.93899989
1.50800002 1.40400004 2.79900002
1.24800003 1.61399996 3.11899996
2.45799994 0.94400001 2.76900005
1.70799994 1.204 3.10899997
1.02800000 1.21399999 3.02900004
0.70800000 1.15400004 2.89899993
0.98799998 0.86400002 2.9289999
1.37800002 1.34399998 2.78900003
1.73800004 1.11399996 3.10899997
1.57799995 1.574 3.10899997
2.15799999 0.96399999 3.10899997
2.24799991 1.42400002 2.77900004
1.65799999 1.44400001 2.78900003
1.71800005 1.19400001 3.10899997
1.96800005 1.41400003 2.78900003
2.05800009 1.54400003 2.9289999
2.41799998 1.64400005 2.90899992
1.66799998 1.204 3.10899997
0.82800001 1.37399995 2.80900002
0.85799998 1.204 3.01900005
0.93800002 0.83399999 2.9289999
1.05799997 0.99400002 2.9690001
1.36800003 1.23399997 3.10899997
1.56799996 1.14400005 3.10899997
1.97800004 1.42400002 2.86899996
0.92799997 1.02400005 2.9289999
2.39800000 1.574 2.94899988
2.38800001 1.52400005 2.78900003
0.69800001 1.04400003 2.85899997
0.76800001 0.91399997 2.83899999
0.70800000 1.61399996 2.9289999
0.69800001 1.63399994 2.98900008
2.45799994 1.09399998 2.81900001
2.51799989 1.17400002 2.75900006
2.21799994 0.80400002 2.81900001
1.75800002 1.18400002 3.10899997
1.38800001 1.56400001 3.14899993
1.45799994 0.954 3.08899999
0.66799998 1.48399997 2.75900006
2.45799994 0.84399998 3.02900004
2.05800009 0.80400002 2.85899997
1.47800004 1.40400004 2.77900004
1.26800001 0.98400003 3.06900001
2.47799993 1.18400002 2.97900009
1.38800001 1.16400003 3.10899997
2.13800001 1.14400005 3.10899997
2.06800008 1.13399994 3.10899997
1.85800004 0.824 2.77900004
2.46799994 0.86400002 2.85899997
1.38800001 1.21399999 3.10899997
2.39800000 1.59399998 2.94899988
1.88800001 1.204 3.10899997
1.84800005 0.83399999 3.08899999
1.26800001 1.06400001 3.079
0.85799998 1.60399997 3.14899993
2.47799993 1.204 2.98900008
1.94799995 1.41400003 2.78900003
0.65799999 1.55400002 2.74900007
2.47799993 1.14400005 2.94899988
0.83800000 1.61399996 3.13899994
0.69800001 1.58399999 2.86899996
2.47799993 1.04400003 2.94899988
1.52800000 0.86400002 3.08899999
0.69800001 1.63399994 2.87899995
1.41799998 1.05400002 3.10899997
2.15799999 0.81400001 2.79900002
2.47799993 0.87400001 2.80900002
2.45799994 1.04400003 2.79900002
1.31799996 1.39400005 2.78900003
0.68800002 1.38399994 2.78900003
2.46799994 0.91399997 2.89899993
0.92799997 1.34399998 2.79900002
1.87800002 1.55400002 3.10899997
0.66799998 1.35399997 2.75900006
2.37800002 1.02400005 3.10899997
1.44799995 0.96399999 3.11899996
1.92799997 1.41400003 2.78900003
1.68799996 0.884 3.09899998
2.04800010 0.98400003 3.10899997
1.67799997 1.43400002 2.79900002
1.20799994 1.24399996 3.08899999
2.46799994 1.66400003 2.84899998
0.93800002 0.954 2.91899991
0.85799998 1.454 2.94899988
0.90799999 1.52400005 3.03900003
2.07800007 0.99400002 3.10899997
2.42799997 1.27400005 2.81900001
2.17799997 1.41400003 2.78900003
1.19799995 0.89399999 2.99900007
1.76800001 1.36399996 2.77900004
2.39800000 1.23399997 3.08899999
1.01800001 0.83399999 2.9690001
2.39800000 1.65400004 2.93899989
1.34800005 1.074 3.10899997
1.73800004 1.05400002 3.10899997
1.52800000 1.40400004 2.76900005
1.75800002 1.50399995 3.11899996
1.18799996 0.884 2.99900007
1.28799999 1.39400005 2.78900003
1.08800006 0.85399997 2.9690001
2.47799993 0.86400002 2.83899999
2.19799995 0.81400001 2.78900003
0.84799999 0.98400003 2.88899994
1.07799995 1.18400002 3.02900004
0.68800002 1.36399996 2.77900004
2.46799994 0.83399999 2.9289999
2.43799996 1.56400001 2.78900003
0.77800000 1.62399995 3.079
1.89800000 1.33399999 2.78900003
2.44799995 1.21399999 3.08899999
1.76800001 1.43400002 2.79900002
0.72799999 1.64400005 3.04900002
1.13800001 0.84399998 2.99900007
1.66799998 1.454 2.79900002
0.65799999 1.33399999 2.74900007
1.23800004 0.97399998 3.03900003
1.53799999 0.824 3.079
2.16799998 1.05400002 3.10899997
1.12800002 1.36399996 2.78900003
1.50800002 1.36399996 2.78900003
0.82800001 1.61399996 3.12899995
2.45799994 1.22399998 3.08899999
1.65799999 0.92400002 3.10899997
0.70800000 1.22399998 2.86899996
1.37800002 1.074 3.10899997
1.57799995 1.60399997 3.10899997
2.43799996 1.15400004 3.08899999
2.00799990 1.22399998 3.09899998
2.01799989 1.22399998 3.09899998
1.02800000 0.90399998 2.93899989
1.62800002 0.824 3.079
0.70800000 1.09399998 2.87899995
0.66799998 1.65400004 3.10899997
1.20799994 1.204 3.079
2.07800007 1.62399995 2.97900009
0.69800001 1.64400005 3.079
1.11800003 0.94400001 2.98900008
2.35800004 1.48399997 2.78900003
2.44799995 1.18400002 2.76900005
2.25799990 1.59399998 2.89899993
1.75800002 1.03400004 3.10899997
1.29799998 0.884 3.079
1.27800000 1.574 3.12899995
1.94799995 1.074 3.10899997
2.46799994 0.954 2.77900004
0.91799998 0.94400001 2.90899992
0.70800000 1.52400005 2.90899992
1.81799996 0.84399998 3.08899999
2.05800009 1.14400005 3.10899997
1.68799996 1.41400003 2.78900003
0.66799998 1.44400001 2.75900006
1.71800005 0.96399999 3.10899997
1.01800001 0.89399999 2.93899989
1.79799998 0.96399999 3.10899997
1.57799995 1.42400002 2.77900004
2.04800010 0.81400001 3.09899998
2.22799993 1.41400003 2.77900004
1.27800000 0.97399998 3.06900001
2.38800001 1.37399995 2.75900006
2.22799993 0.954 3.10899997
0.76800001 1.64400005 3.08899999
0.97799999 1.21399999 3.02900004
1.96800005 1.04400003 3.10899997
0.68800002 1.49399996 2.80900002
2.40799999 1.47399998 2.77900004
1.78799999 1.574 3.10899997
2.47799993 0.97399998 2.75900006
2.22799993 1.36399996 2.75900006
1.27800000 1.14400005 3.10899997
2.51799989 0.87400001 2.76900005
2.13800001 1.39400005 2.76900005
0.67799997 0.99400002 2.78900003
1.41799998 1.40400004 2.78900003
2.35800004 0.85399997 3.08899999
2.18799996 1.43400002 2.829
1.42799997 1.14400005 3.10899997
0.70800000 1.51400006 2.85899997
0.75800002 0.93400002 2.84899998
1.87800002 1.36399996 2.76900005
1.35800004 1.03400004 3.10899997
0.69800001 1.574 2.84899998
2.41799998 1.55400002 2.9289999
2.24799991 1.36399996 2.75900006
1.61800003 1.36399996 2.77900004
2.24799991 1.34399998 2.77900004
1.44799995 1.05400002 3.11899996
0.74800003 1.60399997 2.97900009
1.56799996 1.49399996 3.11899996
2.48799992 1.54400003 2.76900005
0.65799999 1.36399996 2.75900006
0.87800002 1.51400006 2.98900008
0.92799997 0.98400003 2.91899991
1.38800001 0.89399999 3.04900002
0.71799999 1.24399996 2.93899989
2.46799994 1.12399995 2.84899998
2.43799996 1.14400005 2.78900003
1.08800006 1.22399998 3.03900003
0.72799999 1.62399995 2.98900008
1.94799995 0.83399999 3.09899998
2.30800009 1.49399996 2.89899993
2.46799994 1.31400001 2.76900005
0.68800002 1.074 2.84899998
0.85799998 0.954 2.88899994
0.71799999 1.09399998 2.87899995
0.76800001 1.19400001 2.95900011
0.91799998 1.24399996 3.05900002
0.71799999 1.47399998 2.9289999
0.80800003 1.17400002 2.91899991
2.37800002 1.47399998 2.77900004
2.46799994 1.04400003 2.81900001
1.13800001 0.884 2.97900009
1.28799999 0.91399997 3.079
2.47799993 0.84399998 2.76900005
2.06800008 1.09399998 3.10899997
1.49800003 1.35399997 2.77900004
2.44799995 1.21399999 2.77900004
1.48800004 1.04400003 3.11899996
1.61800003 1.09399998 3.10899997
2.03800011 1.46399999 2.9289999
2.12800002 1.24399996 3.09899998
1.58800006 1.50399995 3.12899995
1.12800002 1.04400003 3.00900006
0.68800002 1.04400003 2.829
2.11800003 0.80400002 2.80900002
2.48799992 1.28400004 2.74900007
1.94799995 1.42400002 2.80900002
0.97799999 1.51400006 3.11899996
0.67799997 1.18400002 2.76900005
1.51800001 1.40400004 2.77900004
0.70800000 0.954 2.829
0.68800002 1.65400004 3.13899994
0.70800000 0.86400002 2.80900002
0.66799998 0.99400002 2.76900005
0.66799998 1.66400003 2.93899989
1.17799997 1.38399994 2.79900002
0.87800002 1.47399998 2.94899988
2.46799994 1.00399995 3.06900001
0.92799997 1.204 2.98900008
1.75800002 0.90399998 3.10899997
1.40799999 1.04400003 3.10899997
0.73799998 0.90399998 2.829
1.80799997 1.15400004 3.10899997
0.97799999 0.87400001 2.91899991
1.12800002 1.06400001 3.00900006
1.03799999 1.17400002 3.00900006
1.40799999 0.97399998 3.10899997
0.99800003 1.53400004 3.13899994
0.67799997 0.954 2.79900002
0.68800002 1.08399999 2.85899997
0.84799999 1.19400001 2.94899988
2.44799995 1.66400003 2.87899995
2.35800004 1.01400006 3.10899997
0.76800001 1.61399996 3.03900003
2.17799997 1.40400004 2.80900002
0.79799998 1.53400004 2.95900011
1.63800001 1.00399995 3.10899997
1.59800005 0.96399999 3.10899997
2.16799998 1.35399997 2.76900005
2.47799993 1.16400003 2.9289999
0.67799997 0.86400002 2.79900002
1.42799997 0.93400002 3.06900001
1.73800004 1.61399996 3.10899997
2.34800005 1.47399998 2.77900004
2.47799993 1.27400005 2.95900011
2.09800005 0.81400001 2.79900002
2.52800012 1.36399996 2.75900006
2.44799995 1.28400004 2.85899997
1.84800005 1.21399999 3.10899997
1.80799997 0.954 3.10899997
0.86799997 1.19400001 2.98900008
1.83800006 1.21399999 3.10899997
2.45799994 1.04400003 3.079
2.47799993 1.52400005 2.76900005
1.42799997 1.19400001 3.10899997
1.81799996 1.574 3.10899997
1.40799999 1.21399999 3.10899997
1.81799996 1.24399996 3.10899997
1.33800006 1.02400005 3.10899997
1.89800000 0.87400001 3.10899997
1.55799997 0.89399999 3.09899998
2.32800007 0.85399997 3.08899999
0.65799999 1.66400003 3.14899993
0.90799999 1.04400003 2.9289999
2.51799989 0.93400002 2.76900005
0.96799999 1.48399997 3.04900002
1.93799996 1.37399995 2.76900005
0.91799998 0.93400002 2.89899993
1.64800000 1.17400002 3.10899997
1.80799997 1.06400001 3.10899997
0.97799999 0.824 2.95900011
2.07800007 1.23399997 3.09899998
2.50799990 1.26400006 2.75900006
0.80800003 1.204 3.03900003
2.32800007 1.13399994 3.09899998
1.88800001 0.94400001 3.10899997
2.48799992 0.87400001 2.74900007
2.34800005 1.204 3.08899999
1.94799995 1.09399998 3.10899997
1.32799995 1.10399997 3.10899997
2.01799989 1.34399998 2.76900005
2.26799989 1.40400004 2.77900004
1.48800004 0.87400001 3.06900001
0.85799998 1.19400001 2.95900011
0.70800000 1.28400004 2.829
1.62800002 1.03400004 3.10899997
1.38800001 1.56400001 3.13899994
2.05800009 1.34399998 2.77900004
1.90799999 0.81400001 2.78900003
2.39800000 1.02400005 3.09899998
0.65799999 1.35399997 2.74900007
1.06799996 1.23399997 3.079
0.85799998 1.56400001 3.079
2.21799994 0.80400002 3.08899999
1.19799995 1.19400001 3.06900001
1.98800004 0.90399998 3.10899997
2.38800001 1.58399999 2.93899989
1.25800002 0.96399999 3.05900002
1.77800000 1.03400004 3.10899997
2.47799993 1.01400006 2.829
1.31799996 1.40400004 2.79900002
2.40799999 1.42400002 2.76900005
1.76800001 1.53400004 3.12899995
2.18799996 0.81400001 3.08899999
0.75800002 1.59399998 2.97900009
2.45799994 0.86400002 3.00900006
0.69800001 1.26400006 2.78900003
0.93800002 1.21399999 3.04900002
1.72800004 1.05400002 3.10899997
1.88800001 1.574 3.10899997
2.17799997 1.43400002 2.83899999
0.67799997 0.954 2.81900001
2.46799994 1.14400005 2.85899997
1.10800004 1.00399995 2.98900008
1.69799995 1.43400002 2.79900002
1.58800006 1.36399996 2.77900004
1.21800005 1.14400005 3.06900001
1.13800001 1.01400006 3.00900006
2.48799992 1.23399997 2.74900007
2.53800011 1.204 2.77900004
1.37800002 0.91399997 3.05900002
1.17799997 1.21399999 3.06900001
1.43799996 1.05400002 3.11899996
1.41799998 1.37399995 2.78900003
1.01800001 1.21399999 3.03900003
1.05799997 1.22399998 3.05900002
0.90799999 1.06400001 2.9289999
2.50799990 1.43400002 2.75900006
0.91799998 1.37399995 2.79900002
2.53800011 1.40400004 2.76900005
1.21800005 1.12399995 3.06900001
0.65799999 1.51400006 2.75900006
0.75800002 0.80400002 2.81900001
1.77800000 1.44400001 2.86899996
1.63800001 0.81400001 3.06900001
1.46800005 0.92400002 3.06900001
0.92799997 0.86400002 2.89899993
0.70800000 1.26400006 2.83899999
2.49799991 1.48399997 2.76900005
1.20799994 0.83399999 3.02900004
0.65799999 1.67400002 2.78900003
0.70800000 1.54400003 2.88899994
2.44799995 1.16400003 2.81900001
2.46799994 1.18400002 2.76900005
0.80800003 1.00399995 2.87899995
0.99800003 0.954 2.93899989
1.72800004 1.22399998 3.10899997
1.53799999 1.03400004 3.10899997
2.08800006 0.80400002 2.829
1.71800005 1.49399996 3.10899997
1.91799998 0.81400001 2.81900001
2.17799997 1.55400002 2.91899991
0.65799999 1.67400002 2.97900009
1.48800004 1.39400005 2.79900002
2.47799993 1.11399996 2.93899989
1.15799999 1.15400004 3.04900002
1.82799995 1.59399998 3.10899997
0.70800000 1.53400004 2.89899993
0.71799999 0.98400003 2.84899998
0.88800001 1.19400001 2.94899988
0.83800000 1.59399998 3.09899998
0.79799998 1.204 2.99900007
1.48800004 0.92400002 3.10899997
2.52800012 1.21399999 2.76900005
1.49800003 1.56400001 3.12899995
2.47799993 1.22399998 3.01900005
0.80800003 1.55400002 2.97900009
0.87800002 1.58399999 3.12899995
0.89800000 1.35399997 2.79900002
1.13800001 1.22399998 3.05900002
0.71799999 1.54400003 2.9289999
1.69799995 1.50399995 3.12899995
2.41799998 1.44400001 2.76900005
2.23799992 1.13399994 3.10899997
2.49799991 1.14400005 2.75900006
1.51800001 1.40400004 2.79900002
1.09800005 1.56400001 3.14899993
1.47800004 0.91399997 3.09899998
1.04799998 1.11399996 2.98900008
1.52800000 1.62399995 3.10899997
2.24799991 1.40400004 2.77900004
2.46799994 0.86400002 2.98900008
1.94799995 1.34399998 2.78900003
2.47799993 0.87400001 2.78900003
2.54800010 1.03400004 2.78900003
2.03800011 0.94400001 3.10899997
1.42799997 0.92400002 3.03900003
1.76800001 1.44400001 2.80900002
2.44799995 1.16400003 2.80900002
0.89800000 1.16400003 2.94899988
0.79799998 0.80400002 2.84899998
2.47799993 0.93400002 2.79900002
2.28800011 1.62399995 2.89899993
1.41799998 1.22399998 3.10899997
0.88800001 1.19400001 2.98900008
0.79799998 1.62399995 3.10899997
2.19799995 1.19400001 3.09899998
2.15799999 0.80400002 2.84899998
1.66799998 1.50399995 3.12899995
0.96799999 1.34399998 2.79900002
2.09800005 1.16400003 3.10899997
0.87800002 0.90399998 2.87899995
2.43799996 1.10399997 2.77900004
0.72799999 1.15400004 2.89899993
2.44799995 0.99400002 2.76900005
1.99800003 1.35399997 2.76900005
0.84799999 0.89399999 2.86899996
1.81799996 1.54400003 3.10899997
2.47799993 1.31400001 2.75900006
2.19799995 1.54400003 2.91899991
1.40799999 1.39400005 2.79900002
0.93800002 0.824 2.93899989
0.72799999 1.63399994 2.99900007
1.50800002 0.91399997 3.10899997
2.52800012 0.954 2.77900004
2.45799994 1.63399994 2.85899997
2.54800010 1.00399995 2.78900003
2.27800012 1.22399998 3.08899999
1.06799996 0.884 2.94899988
1.74800003 0.97399998 3.10899997
1.63800001 1.22399998 3.10899997
1.09800005 1.09399998 3.00900006
2.47799993 1.17400002 2.89899993
2.46799994 0.96399999 2.95900011
2.06800008 0.80400002 2.85899997
2.19799995 0.92400002 3.10899997
1.15799999 0.93400002 2.99900007
1.90799999 1.13399994 3.10899997
0.76800001 0.83399999 2.829
1.51800001 1.35399997 2.77900004
2.46799994 1.03400004 3.01900005
1.09800005 0.92400002 2.9690001
1.97800004 1.16400003 3.10899997
1.78799999 1.15400004 3.10899997
0.77800000 1.03400004 2.86899996
2.15799999 0.81400001 2.78900003
2.21799994 0.96399999 3.10899997
0.78799999 1.60399997 3.04900002
2.21799994 0.90399998 3.10899997
2.44799995 1.25399995 2.84899998
1.75800002 1.44400001 2.83899999
0.81800002 1.54400003 2.9690001
2.49799991 1.00399995 2.75900006
0.86799997 0.84399998 2.88899994
1.28799999 1.13399994 3.10899997
1.13800001 1.10399997 3.02900004
1.75800002 1.08399999 3.10899997
2.30800009 0.84399998 3.08899999
2.45799994 0.83399999 3.00900006
0.89800000 1.06400001 2.91899991
0.93800002 1.49399996 3.01900005
1.75800002 1.55400002 3.10899997
1.13800001 0.89399999 2.97900009
0.70800000 1.50399995 2.91899991
1.77800000 0.85399997 3.08899999
1.09800005 1.39400005 2.79900002
1.88800001 0.98400003 3.10899997
0.90799999 1.54400003 3.079
2.04800010 0.884 3.10899997
2.53800011 1.11399996 2.77900004
0.76800001 1.47399998 2.95900011
2.18799996 0.85399997 3.10899997
1.48800004 0.89399999 3.05900002
0.91799998 0.97399998 2.90899992
2.14800000 1.41400003 2.84899998
1.73800004 1.53400004 3.12899995
0.96799999 1.06400001 2.94899988
1.06799996 1.074 2.98900008
2.07800007 0.80400002 2.89899993
2.18799996 1.53400004 2.91899991
2.10800004 1.41400003 2.79900002
1.67799997 1.66400003 3.14899993
0.67799997 1.324 2.77900004
1.51800001 1.38399994 2.78900003
2.33800006 1.15400004 3.09899998
2.42799997 1.35399997 2.75900006
0.75800002 1.11399996 2.88899994
0.73799998 1.37399995 2.80900002
2.53800011 0.824 2.76900005
2.33800006 0.884 3.09899998
2.41799998 1.17400002 3.09899998
0.69800001 1.36399996 2.78900003
2.11800003 1.42400002 2.88899994
0.75800002 1.19400001 2.94899988
2.46799994 1.10399997 3.02900004
1.75800002 1.24399996 3.10899997
1.23800004 1.40400004 2.79900002
2.47799993 1.21399999 2.91899991
2.09800005 0.90399998 3.10899997
2.28800011 1.19400001 3.09899998
0.74800003 1.204 2.94899988
2.47799993 1.19400001 3.03900003
0.69800001 1.10399997 2.86899996
0.65799999 1.68400002 2.91899991
2.41799998 1.62399995 2.91899991
0.65799999 1.66400003 3.12899995
1.96800005 1.09399998 3.10899997
1.07799995 1.36399996 2.78900003
2.44799995 1.15400004 2.829
0.94800001 1.02400005 2.9289999
2.18799996 1.62399995 2.93899989
2.47799993 0.92400002 2.80900002
2.42799997 1.25399995 2.81900001
2.46799994 1.16400003 2.75900006
0.75800002 1.58399999 2.95900011
0.95800000 1.58399999 3.13899994
1.26800001 0.81400001 3.04900002
0.94800001 1.05400002 2.93899989
0.69800001 1.13399994 2.80900002
0.84799999 1.19400001 2.98900008
2.50799990 1.074 2.75900006
1.02800000 0.83399999 2.9690001
0.99800003 1.21399999 3.02900004
0.92799997 1.39400005 2.79900002
0.89800000 0.97399998 2.89899993
0.73799998 1.22399998 2.91899991
0.80800003 1.59399998 3.06900001
1.28799999 1.39400005 2.79900002
2.47799993 1.18400002 2.9289999
2.08800006 1.39400005 2.77900004
0.99800003 0.884 2.9289999
1.78799999 0.87400001 3.09899998
1.82799995 1.43400002 2.83899999
2.45799994 1.204 2.85899997
0.81800002 0.87400001 2.84899998
2.34800005 0.94400001 3.09899998
1.61800003 1.074 3.10899997
0.97799999 0.96399999 2.9289999
0.96799999 1.204 2.98900008
2.08800006 1.23399997 3.09899998
1.18799996 1.39400005 2.79900002
0.88800001 1.204 3.03900003
1.97800004 1.42400002 2.80900002
2.47799993 1.08399999 2.86899996
1.06799996 0.91399997 2.95900011
1.76800001 1.04400003 3.10899997
2.48799992 1.11399996 2.75900006
2.46799994 1.02400005 2.99900007
1.67799997 1.61399996 3.10899997
2.42799997 1.574 2.91899991
2.07800007 1.59399998 2.95900011
2.06800008 1.61399996 2.9690001
2.47799993 0.99400002 2.85899997
2.46799994 0.97399998 2.91899991
0.94800001 0.884 2.89899993
2.45799994 1.05400002 2.76900005
0.85799998 1.50399995 2.95900011
0.70800000 1.56400001 2.89899993
1.21800005 0.83399999 3.02900004
2.30800009 1.55400002 2.89899993
1.75800002 1.06400001 3.10899997
1.68799996 0.94400001 3.10899997
1.37800002 1.574 3.12899995
0.89800000 0.89399999 2.88899994
2.12800002 1.02400005 3.10899997
1.14800000 0.85399997 2.99900007
2.23799992 1.50399995 2.86899996
2.15799999 1.00399995 3.10899997
0.97799999 1.21399999 3.00900006
1.92799997 1.18400002 3.10899997
2.02800012 1.44400001 2.91899991
0.92799997 0.85399997 2.91899991
0.82800001 1.56400001 3.03900003
2.45799994 0.99400002 3.079
1.50800002 0.824 3.079
0.65799999 1.66400003 2.75900006
2.41799998 1.21399999 3.08899999
2.05800009 1.61399996 2.97900009
1.02800000 1.02400005 2.9690001
2.41799998 0.87400001 3.08899999
2.14800000 1.11399996 3.10899997
0.70800000 1.03400004 2.85899997
0.94800001 0.92400002 2.90899992
1.57799995 1.22399998 3.10899997
1.19799995 1.06400001 3.03900003
2.46799994 1.24399996 3.06900001
2.41799998 1.30400002 2.79900002
1.90799999 1.01400006 3.10899997
2.05800009 1.56400001 2.94899988
1.15799999 1.53400004 3.13899994
2.00799990 1.14400005 3.10899997
2.15799999 1.62399995 2.93899989
0.92799997 1.204 2.99900007
2.47799993 0.954 2.85899997
1.66799998 0.86400002 3.08899999
2.18799996 1.36399996 2.75900006
0.93800002 0.89399999 2.89899993
1.52800000 1.11399996 3.11899996
2.03800011 0.96399999 3.10899997
1.58800006 0.81400001 3.079
0.70800000 1.27400005 2.81900001
0.71799999 1.62399995 2.98900008
2.46799994 1.11399996 3.05900002
2.46799994 1.574 2.77900004
2.47799993 0.97399998 2.86899996
2.18799996 1.42400002 2.77900004
1.02800000 1.40400004 2.79900002
2.14800000 0.81400001 2.80900002
1.87800002 1.58399999 3.10899997
0.76800001 1.40400004 2.79900002
2.46799994 1.29400003 2.90899992
1.22800004 0.92400002 3.01900005
2.37800002 1.36399996 2.75900006
1.25800002 1.12399995 3.08899999
1.64800000 1.50399995 3.11899996
1.67799997 1.55400002 3.11899996
0.65799999 1.38399994 2.75900006
1.62800002 0.91399997 3.10899997
0.68800002 1.64400005 3.04900002
2.29800010 1.52400005 2.89899993
2.09800005 0.99400002 3.10899997
1.45799994 0.94400001 3.03900003
1.19799995 1.22399998 3.079
2.24799991 1.50399995 2.87899995
0.67799997 1.55400002 2.80900002
2.30800009 0.80400002 2.89899993
0.94800001 1.53400004 3.10899997
1.81799996 0.87400001 3.09899998
2.50799990 1.56400001 2.76900005
1.20799994 0.90399998 3.00900006
2.47799993 0.84399998 2.80900002
1.74800003 1.44400001 2.829
2.47799993 0.954 2.75900006
1.01800001 0.93400002 2.93899989
1.57799995 0.84399998 3.08899999
2.46799994 0.954 2.9690001
0.71799999 1.64400005 3.04900002
2.45799994 0.81400001 3.02900004
2.26799989 1.51400006 2.88899994
2.54800010 1.36399996 2.76900005
1.84800005 0.83399999 2.78900003
0.70800000 1.26400006 2.85899997
0.69800001 0.86400002 2.79900002
0.67799997 1.34399998 2.77900004
1.30799997 1.21399999 3.10899997
1.87800002 1.19400001 3.10899997
1.79799998 1.44400001 2.86899996
2.28800011 0.85399997 3.09899998
1.92799997 1.42400002 2.84899998
1.38800001 0.92400002 3.08899999
2.20799994 0.80400002 2.83899999
2.54800010 0.90399998 2.77900004
0.66799998 0.86400002 2.77900004
2.21799994 0.93400002 3.10899997
0.94800001 1.17400002 2.9690001
0.68800002 1.10399997 2.77900004
0.66799998 1.56400001 2.76900005
2.05800009 1.04400003 3.10899997
0.74800003 0.84399998 2.80900002
1.38800001 1.58399999 3.12899995
1.58800006 1.44400001 2.79900002
0.80800003 0.83399999 2.85899997
0.70800000 1.23399997 2.91899991
2.42799997 1.33399999 2.77900004
0.67799997 1.65400004 2.81900001
1.68799996 1.60399997 3.10899997
0.94800001 1.574 3.14899993
2.50799990 0.98400003 2.75900006
2.19799995 0.98400003 3.10899997
2.46799994 0.80400002 2.89899993
2.29800010 0.98400003 3.10899997
1.32799995 0.954 3.09899998
0.79799998 0.98400003 2.86899996
0.83800000 1.19400001 2.99900007
0.97799999 1.16400003 2.97900009
1.14800000 1.19400001 3.05900002
0.75800002 1.64400005 3.079
2.06800008 0.80400002 2.80900002
0.67799997 1.16400003 2.77900004
1.10800004 1.574 3.14899993
0.92799997 1.53400004 3.10899997
0.76800001 1.63399994 3.06900001
2.17799997 0.87400001 3.10899997
1.99800003 0.83399999 3.09899998
1.92799997 1.15400004 3.10899997
0.85799998 1.204 3.04900002
1.15799999 0.98400003 3.00900006
2.32800007 1.33399999 2.77900004
2.20799994 1.42400002 2.77900004
1.52800000 1.23399997 3.10899997
2.44799995 1.26400006 2.85899997
0.88800001 1.51400006 2.99900007
1.31799996 1.38399994 2.79900002
0.87800002 1.41400003 2.79900002
2.54800010 0.954 2.78900003
2.24799991 1.37399995 2.76900005
1.78799999 0.96399999 3.10899997
1.64800000 1.44400001 2.79900002
1.62800002 0.954 3.10899997
1.89800000 1.42400002 2.87899995
1.21800005 1.40400004 2.79900002
0.79799998 1.204 3.00900006
2.30800009 1.574 2.89899993
2.25799990 0.97399998 3.10899997
0.98799998 1.47399998 3.05900002
1.38800001 0.92400002 3.079
1.68799996 1.06400001 3.10899997
2.45799994 0.93400002 3.079
2.47799993 1.01400006 2.85899997
1.00800002 1.54400003 3.13899994
2.41799998 1.64400005 2.91899991
2.44799995 1.08399999 3.079
2.40799999 0.93400002 3.08899999
1.83800006 1.35399997 2.76900005
2.43799996 0.81400001 3.079
1.66799998 1.00399995 3.10899997
2.16799998 1.43400002 2.84899998
2.46799994 0.824 2.91899991
2.33800006 1.64400005 2.90899992
0.87800002 1.574 3.10899997
2.44799995 1.06400001 3.08899999
1.24800003 0.84399998 3.02900004
2.05800009 0.85399997 3.10899997
1.65799999 1.60399997 3.10899997
2.39800000 1.11399996 3.10899997
2.35800004 1.62399995 2.9289999
1.90799999 1.18400002 3.10899997
1.92799997 1.22399998 3.09899998
2.53800011 1.16400003 2.77900004
1.48800004 1.58399999 3.11899996
2.20799994 1.60399997 2.90899992
0.71799999 1.59399998 2.9289999
2.37800002 0.83399999 3.08899999
1.81799996 1.44400001 2.79900002
2.25799990 1.63399994 2.90899992
2.00799990 1.204 3.09899998
2.05800009 1.12399995 3.10899997
2.47799993 1.02400005 2.75900006
0.68800002 1.08399999 2.79900002
1.23800004 1.074 3.06900001
1.78799999 1.24399996 3.10899997
1.73800004 1.204 3.10899997
1.28799999 1.09399998 3.09899998
1.62800002 1.204 3.10899997
1.14800000 1.21399999 3.05900002
1.99800003 1.21399999 3.09899998
2.04800010 1.42400002 2.78900003
2.52800012 1.52400005 2.76900005
2.47799993 1.55400002 2.77900004
1.01800001 1.574 3.13899994
2.53800011 1.61399996 2.77900004
1.42799997 1.09399998 3.10899997
0.73799998 1.04400003 2.86899996
0.67799997 1.074 2.76900005
2.27800012 1.42400002 2.78900003
0.70800000 1.24399996 2.89899993
1.94799995 0.94400001 3.10899997
