# .PCD v0.7 - Point Cloud Data file format
VERSION 0.7
FIELDS x y z
SIZE 4 4 4
TYPE F F F
COUNT 1 1 1
WIDTH 1534
HEIGHT 1
VIEWPOINT 0 0 0 1 0 0 0
POINTS 1534
DATA ascii
3.58299994 0.51300001 2.1960001
3.93499994 0.861 2.07800007
3.90400004 0.099 2.12800002
3.73699999 0.045 1.91499996
3.86800003 0.74800003 2.03900003
3.52600002 0.514 2.12599993
3.86700010 0.49399999 2.21399999
4.02699995 0.78799999 2.18000007
4.09200001 0.93400002 2.07200003
3.80200005 0.72799999 1.95799994
3.73699999 0.045 1.91499996
3.73699999 0.045 1.91499996
3.55699992 0.50999999 2.09699988
3.96199989 0.74800003 2.2650001
3.62700009 0.51899999 2.34100008
3.88199997 0.72600001 1.95299995
4.00500011 0.053 2.10100007
3.91199994 0.89999998 1.96700001
3.73699999 0.045 1.91499996
3.83100009 0.63099998 2.01799989
3.81599998 0.161 2.1500001
3.66199994 0.081 2.14199996
3.87800002 0.83499998 2.00399995
4.03100014 0.71499997 2.21199989
4.02699995 0.68000001 2.23200011
3.95700002 0.55800003 2.02699995
3.73699999 0.045 1.91499996
3.74499989 0.48300001 2.08599997
3.75200009 0.49399999 2.17000008
4.07399988 0.93300003 2.06800008
3.86999989 0.114 2.13400006
3.90300012 0.48500001 2.1559999
3.74799991 0.50800002 2.28299999
3.87299991 0.50099999 2.3599999
3.73699999 0.045 1.91499996
3.73699999 0.045 1.91499996
3.64299989 0.49599999 2.07999992
3.73699999 0.045 1.91499996
3.73399997 0.16500001 2.11500001
3.98499990 0.73199999 2.02200007
3.73699999 0.045 1.91499996
3.73699999 0.045 1.91499996
3.51399994 0.50400001 2.22300005
3.96799994 0.84299999 1.94400001
3.74200010 0.493 2.15899992
3.73699999 0.045 1.91499996
3.91899991 0.80199999 2.0769999
3.73699999 0.045 1.91499996
3.65300012 0.5 2.16000009
3.64199996 0.50400001 2.18499994
3.55800009 0.062 2.21000004
3.73699999 0.045 1.91499996
3.51399994 0.50099999 2.26200008
3.92499995 0.48500001 2.22900009
3.92400002 0.64600003 2.18300009
3.73699999 0.045 1.91499996
3.95099998 0.78799999 2.25
3.73699999 0.045 1.91499996
4.03399992 0.67299998 2.21000004
3.88800001 0.73699999 1.95099998
3.48900008 0.5 2.1559999
3.73699999 0.045 1.91499996
3.73699999 0.045 1.91499996
3.73699999 0.045 1.91499996
3.89700007 0.114 2.13899994
3.73699999 0.045 1.91499996
3.84500003 0.741 1.91299999
3.65400004 0.051 2.10899997
3.74900007 0.48699999 2.11599994
3.98399997 0.88200003 2.16899991
3.73699999 0.045 1.91499996
3.84200001 0.50800002 2.35800004
3.93199992 0.912 1.88900006
3.73699999 0.045 1.91499996
3.73699999 0.045 1.91499996
3.67100000 0.52600002 2.40100002
3.66799998 0.13600001 2.18099999
3.73900008 0.52200001 2.3829999
4.07000017 0.90499997 2.10599995
3.51500010 0.083 2.16199994
3.73699999 0.045 1.91499996
3.76699996 0.50099999 2.23399997
3.88100004 0.47600001 2.08200002
3.90599990 0.84500003 2.04299998
3.92700005 0.68199998 2.14199996
3.49000001 0.50099999 2.15799999
3.73699999 0.045 1.91499996
3.96199989 0.73199999 2.273
3.83800006 0.108 2.125
3.96700001 0.69499999 2.02900004
3.73699999 0.045 1.91499996
3.73699999 0.045 1.91499996
3.73099995 0.50800002 2.27800012
3.72300005 0.113 2.02900004
3.89800000 0.62 2.08500004
3.66899991 0.49700001 2.15300012
3.72900009 0.53200001 2.45799994
3.73699999 0.045 1.91499996
3.73699999 0.045 1.91499996
3.82800007 0.67500001 2.01200008
3.57500005 0.088 2.18300009
3.78900003 0.67199999 1.97800004
3.89499998 0.82800001 1.89999998
3.73699999 0.045 1.91499996
3.71499991 0.102 2.02900004
3.62700009 0.50099999 2.1170001
3.88800001 0.63700002 1.97599995
3.71600008 0.49599999 2.17700005
3.70199990 0.077 2.00900006
3.47600007 0.47600001 2.20099998
3.81200004 0.81900001 1.91700006
3.98499990 0.824 2.19899988
3.88599992 0.82599998 1.89499998
3.73699999 0.045 1.91499996
3.86899996 0.72100002 2.04200006
3.51799989 0.097 2.14899993
3.73699999 0.045 1.91499996
3.90799999 0.66799998 2.07800007
3.65599990 0.076 2.23300004
3.73699999 0.045 1.91499996
3.53399992 0.091 2.16400003
3.97900009 0.81099999 1.97500002
3.73799992 0.178 2.13000011
3.88400006 0.62199998 2.06200004
3.73699999 0.045 1.91499996
3.58699989 0.50099999 2.03800011
3.94400001 0.74400002 2.1329999
3.73699999 0.045 1.91499996
3.53200006 0.057 2.1960001
3.73699999 0.045 1.91499996
3.70300007 0.15800001 2.17700005
3.58500004 0.116 2.1500001
3.73699999 0.045 1.91499996
3.73699999 0.045 1.91499996
4.03100014 0.68000001 2.18000007
3.94600010 0.73799998 2.2249999
3.93899989 0.75 2.27999997
3.88400006 0.76899999 1.92799997
4.00099993 0.058 2.10500002
3.73699999 0.045 1.91499996
3.73699999 0.045 1.91499996
3.72700000 0.50199997 2.23000002
3.76200008 0.509 2.29399991
3.73699999 0.045 1.91499996
3.66700006 0.14 2.17700005
3.89199996 0.66000003 1.97500002
3.80500007 0.50099999 2.24799991
3.97099996 0.83399999 2.14100003
3.71199989 0.13500001 2.11500001
3.88100004 0.84100002 2.00600004
3.97099996 0.74000001 2.00399995
3.73699999 0.045 1.91499996
3.73699999 0.045 1.91499996
3.73699999 0.045 1.91499996
3.73699999 0.045 1.91499996
3.86100006 0.75 1.92400002
3.90599990 0.90100002 1.90999997
3.73699999 0.045 1.91499996
3.63299990 0.053 2.13800001
3.50000000 0.50700003 2.11599994
3.73699999 0.045 1.91499996
3.73699999 0.045 1.91499996
3.58500004 0.51800001 2.33400011
3.68099999 0.123 2.19700003
3.73699999 0.045 1.91499996
3.73699999 0.045 1.91499996
3.80800009 0.78299999 1.92900002
3.80800009 0.66799998 1.99600005
3.65100002 0.493 2.04900002
3.88100004 0.838 1.88300002
3.73699999 0.045 1.91499996
4.06899977 0.93300003 2.08899999
3.66799998 0.50599998 2.24699998
3.73699999 0.045 1.91499996
4.05800009 0.92799997 2.10100007
3.68899989 0.088 2.22900009
4.00899982 0.727 2.22600007
3.73699999 0.045 1.91499996
3.91899991 0.88700002 2.03399992
3.73699999 0.045 1.91499996
3.89400005 0.727 2.06200004
3.84699988 0.50599998 2.32399988
3.73699999 0.045 1.91499996
4.04400015 0.82099998 2.06100011
3.73699999 0.045 1.91499996
3.91300011 0.63700002 2.14100003
3.63599992 0.073 2.22600007
3.97099996 0.84100002 2.18899989
3.73699999 0.045 1.91499996
3.90100002 0.829 1.903
3.93799996 0.704 2.00399995
3.96399999 0.61199999 2.05299997
3.95900011 0.74299997 1.995
3.49900007 0.51200002 2.04299998
3.73699999 0.045 1.91499996
3.68400002 0.51800001 2.3440001
3.83699989 0.486 2.14199996
3.73699999 0.045 1.91499996
3.70900011 0.102 2.046
3.97799993 0.861 2.13599992
3.51300001 0.505 2.19400001
3.98499990 0.889 2.1559999
3.73699999 0.045 1.91499996
3.77500010 0.52499998 2.421
3.76999998 0.51599997 2.34599996
3.84299994 0.85500002 1.93400002
3.73699999 0.045 1.91499996
3.73699999 0.045 1.91499996
3.73699999 0.045 1.91499996
3.85999990 0.48699999 2.15799999
3.95199990 0.72000003 2.00399995
3.93300009 0.69300002 2.24799991
3.76999998 0.64700001 1.96399999
3.78399992 0.52399999 2.42700005
3.57800007 0.085 2.14499998
3.93700004 0.66000003 2.02200007
4.02299976 0.66500002 2.16499996
4.01000023 0.69199997 2.24300003
3.68799996 0.085 2.06999993
3.97499990 0.92299998 2.03399992
3.73699999 0.045 1.91499996
3.90700006 0.486 2.16899991
3.69199991 0.112 2.12700009
3.87199998 0.85000002 1.88399994
4.02899981 0.75400001 2.19499993
3.64400005 0.077 2.26300001
3.59699988 0.50099999 2.05299997
3.88700008 0.125 2.14400005
3.70099998 0.495 2.16499996
3.73699999 0.045 1.91499996
3.87599993 0.66799998 2.05200005
4.07900000 0.88999999 2.07500005
3.73699999 0.045 1.91499996
3.64800000 0.51200002 2.28600001
3.67799997 0.5 2.20000005
3.73699999 0.045 1.91499996
3.73699999 0.045 1.91499996
3.73699999 0.045 1.91499996
3.73699999 0.045 1.91499996
3.65100002 0.49900001 2.13700008
3.89899993 0.086 2.11599994
3.75699997 0.491 2.148
3.73699999 0.045 1.91499996
3.73699999 0.045 1.91499996
4.01499987 0.72000003 2.0710001
4.01999998 0.74299997 2.20499992
3.73699999 0.045 1.91499996
3.73000002 0.059 1.94599998
3.95400000 0.77399999 2.21499991
3.95000005 0.759 2.14299989
4.02299976 0.921 1.98300004
3.73699999 0.045 1.91499996
4.04099989 0.80800003 2.16400003
3.97600007 0.79100001 1.98000002
3.73699999 0.045 1.91499996
3.66700006 0.11 2.2019999
3.56900001 0.50400001 2.02900004
3.95600009 0.76599997 1.97800004
3.57800007 0.50599998 2.08100009
3.96499991 0.051 2.0940001
3.89599991 0.49399999 2.30599999
3.69899988 0.097 2.06100011
3.73699999 0.045 1.91499996
3.73600006 0.51499999 2.32800007
3.98200011 0.86799997 2.1559999
3.73699999 0.045 1.91499996
3.73699999 0.045 1.91499996
3.99300003 0.80500001 2.20099998
3.73699999 0.045 1.91499996
3.73699999 0.045 1.91499996
3.82200003 0.79400003 1.94400001
3.79999995 0.47999999 2.07800007
3.73699999 0.045 1.91499996
3.99200010 0.90899998 2.13899994
3.90199995 0.61699998 2.11100006
3.61800003 0.49700001 2.02999997
3.89299989 0.80000001 2.0539999
3.68799996 0.51300001 2.30500007
3.84699988 0.67799997 2.02699995
3.73699999 0.045 1.91499996
3.47600007 0.46000001 2.12199998
3.71399999 0.127 2.08400011
3.89800000 0.80400002 1.91600001
3.71300006 0.049 1.91499996
3.73699999 0.045 1.91499996
4.01100016 0.89999998 1.97599995
3.98600006 0.52700001 2.04399991
3.84699988 0.50800002 2.40199995
3.58999991 0.059 2.14100003
3.82599998 0.79100001 1.87800002
3.71199989 0.50599998 2.25699997
3.84500003 0.73000002 2.02099991
3.94199991 0.70899999 2.21499991
3.82500005 0.49700001 2.22600007
3.87199998 0.67199999 1.95299995
3.73699999 0.045 1.91499996
3.98799992 0.89099997 2.14599991
3.73699999 0.045 1.91499996
3.73699999 0.045 1.91499996
3.86999989 0.68000001 1.949
3.83100009 0.75099999 1.89699996
3.79800010 0.71100003 1.96399999
3.73699999 0.045 1.91499996
4.08199978 0.889 2.07999992
3.41700006 0.049 2.14499998
3.50399995 0.495 2.29299998
3.69300008 0.094 2.07999992
3.71900010 0.185 2.15700006
3.73699999 0.045 1.91499996
3.49099994 0.498 2.05900002
3.73699999 0.045 1.91499996
3.65499997 0.5 2.16100001
3.73699999 0.045 1.91499996
3.92700005 0.90700001 1.95700002
3.84500003 0.861 1.93299997
3.69300008 0.14 2.18799996
3.43600011 0.047 2.16000009
3.73699999 0.045 1.91499996
3.73699999 0.045 1.91499996
3.61500001 0.05 2.13899994
3.73699999 0.045 1.91499996
3.75600004 0.50599998 2.26699996
3.81699991 0.484 2.11599994
3.89400005 0.49599999 2.35400009
3.56800008 0.51499999 2.2980001
4.01499987 0.92699999 1.97500002
3.85500002 0.49200001 2.19799995
3.41199994 0.052 2.14700007
3.74499989 0.528 2.43400002
3.73699999 0.045 1.91499996
3.77999997 0.47999999 2.07299995
4.01000023 0.73699999 2.2190001
4.01300001 0.648 2.14599991
3.92899990 0.90799999 1.95099998
3.87400007 0.87599999 1.96899998
3.79699993 0.52100003 2.41300011
3.73099995 0.131 2.0480001
3.68000007 0.49900001 2.19099998
3.98499990 0.89099997 2.12599993
3.73699999 0.045 1.91499996
3.99300003 0.92500001 1.97399998
3.71499991 0.073 1.96399999
4.02899981 0.69700003 2.22199988
3.52099991 0.056 2.2019999
3.90499997 0.76099998 2.06800008
4.02199984 0.92799997 2.02200007
3.73699999 0.045 1.91499996
3.80599999 0.81599998 1.91400003
3.73699999 0.045 1.91499996
3.71199989 0.52100003 2.375
3.71399999 0.523 2.39199996
3.73699999 0.045 1.91499996
3.78699994 0.708 1.949
3.91700006 0.85900003 2.05100012
3.73699999 0.045 1.91499996
3.95600009 0.91799998 1.97000003
3.63199997 0.075 2.25600004
4.01900005 0.71100003 2.08100009
3.92799997 0.676 2.15700006
3.70000005 0.054 1.96399999
3.73699999 0.045 1.91499996
3.73699999 0.045 1.91499996
3.84400010 0.87099999 1.92400002
3.73699999 0.045 1.91499996
3.95600009 0.787 2.2190001
3.73699999 0.045 1.91499996
3.73699999 0.045 1.91499996
3.73699999 0.045 1.91499996
3.84599996 0.73299998 1.91499996
3.90100002 0.495 2.37800002
3.93899989 0.72600001 2.13899994
4.02600002 0.92799997 2.046
3.86500001 0.50099999 2.28399992
3.72499990 0.133 2.06900001
3.73699999 0.045 1.91499996
4.03900003 0.74900001 2.0999999
3.81599998 0.49900001 2.23300004
3.97300005 0.83700001 2.14299989
3.91100001 0.76499999 1.949
3.60599995 0.51599997 2.27699995
3.73699999 0.045 1.91499996
3.73699999 0.045 1.91499996
3.73699999 0.045 1.91499996
3.75200009 0.73500001 1.89400005
3.73699999 0.045 1.91499996
3.61500001 0.112 2.1789999
3.97900009 0.773 1.99399996
3.73699999 0.045 1.91499996
3.73699999 0.045 1.91499996
3.73699999 0.045 1.91499996
3.94000006 0.72299999 2.14899993
3.73699999 0.045 1.91499996
3.79099989 0.498 2.21600008
3.99600005 0.79699999 2.00600004
3.73699999 0.045 1.91499996
3.80100012 0.50599998 2.28299999
3.73699999 0.045 1.91499996
3.90799999 0.89300001 2.01200008
3.72799993 0.16 2.11899996
3.73699999 0.045 1.91499996
3.97300005 0.884 1.93099999
3.71000004 0.15700001 2.18000007
3.73699999 0.045 1.91499996
3.98000002 0.92400002 2.04999995
3.78099990 0.177 2.15199995
3.73699999 0.045 1.91499996
3.63700008 0.08 2.21499991
3.89499998 0.48699999 2.1730001
3.95600009 0.84299999 1.93099999
3.73699999 0.045 1.91499996
4.04899979 0.85299999 2.1400001
3.74799991 0.53299999 2.47399998
3.73699999 0.045 1.91499996
3.58699989 0.115 2.16499996
3.98200011 0.61500001 2.0710001
3.73699999 0.045 1.91499996
3.73699999 0.045 1.91499996
3.73699999 0.045 1.91499996
3.73699999 0.045 1.91499996
3.73699999 0.045 1.91499996
3.68899989 0.145 2.18199992
3.96000004 0.796 2.20499992
3.88299990 0.87099999 1.98699999
3.73699999 0.045 1.91499996
3.73699999 0.045 1.91499996
3.73699999 0.045 1.91499996
3.55599999 0.061 2.20700002
4.08699989 0.935 2.07399988
3.86500001 0.49399999 2.21199989
3.73699999 0.045 1.91499996
3.60200000 0.069 2.2349999
3.73699999 0.045 1.91499996
3.84899998 0.099 2.12100005
3.73699999 0.045 1.91499996
3.73699999 0.045 1.91499996
3.73699999 0.045 1.91499996
3.59899998 0.505 2.12100005
3.73699999 0.045 1.91499996
3.95099998 0.88300002 1.903
3.92600012 0.48100001 2.13700008
3.70199990 0.15899999 2.15300012
3.68499994 0.109 2.14499998
3.68300009 0.50800002 2.26600003
3.65400004 0.49700001 2.12299991
3.73699999 0.045 1.91499996
3.90899992 0.71200001 1.98000002
3.46900010 0.054 2.16799998
4.01399994 0.92799997 2.08100009
3.94899988 0.58200002 2.02800012
3.73699999 0.045 1.91499996
3.82599998 0.81800002 1.93299997
3.96000004 0.903 1.903
3.73699999 0.045 1.91499996
3.95199990 0.81699997 1.94400001
3.73699999 0.045 1.91499996
3.65499997 0.49599999 2.10100007
3.96300006 0.80900002 2.13599992
3.94400001 0.74800003 2.28399992
3.73699999 0.045 1.91499996
3.90199995 0.89899999 1.91600001
3.75699997 0.51700002 2.352
3.97099996 0.90200001 2.10700011
3.55399990 0.086 2.14599991
3.64400005 0.15099999 2.15400004
3.73699999 0.045 1.91499996
3.80399990 0.76499999 1.93599999
3.64899993 0.52200001 2.36199999
3.91199994 0.48300001 2.15100002
3.49000001 0.07 2.14599991
3.73699999 0.045 1.91499996
3.89100003 0.49399999 2.26799989
3.55699992 0.51800001 2.20799994
4.02699995 0.70200002 2.125
3.48499990 0.48300001 2.08599997
3.84500003 0.82999998 1.95500004
3.49699998 0.054 2.1789999
3.76300001 0.72500002 1.92200005
4.01800013 0.65100002 2.16700006
3.99099994 0.73799998 2.02800012
3.76500010 0.49599999 2.19499993
4.02099991 0.71700001 2.21799994
3.98900008 0.70300001 2.25999999
3.54399991 0.51499999 2.19199991
3.73699999 0.045 1.91499996
3.92400002 0.81 2.07999992
3.73699999 0.045 1.91499996
4.09499979 0.92400002 2.08500004
3.87500000 0.66100001 1.95799994
3.67400002 0.079 2.10899997
3.73699999 0.045 1.91499996
3.93799996 0.71499997 2.24399996
3.96499991 0.76499999 1.98399997
3.73699999 0.045 1.91499996
3.97399998 0.755 2.24799991
3.93400002 0.70599997 2.14100003
3.62599993 0.117 2.14899993
3.54699993 0.51599997 2.15899992
3.59800005 0.50700003 2.13400006
4.02099991 0.76999998 2.05500007
3.73699999 0.045 1.91499996
3.69099998 0.088 2.0710001
3.73699999 0.045 1.91499996
3.73699999 0.045 1.91499996
3.73699999 0.045 1.91499996
3.66700006 0.149 2.16899991
4.07200003 0.833 2.12700009
3.51399994 0.51300001 2.09699988
4.01300001 0.92699999 2.05699992
4.05499983 0.93199998 2.0940001
3.79399991 0.75300002 1.93200004
3.73699999 0.045 1.91499996
3.96600008 0.79799998 2.16899991
3.73699999 0.045 1.91499996
3.61500001 0.50099999 2.09699988
3.73699999 0.045 1.91499996
3.97399998 0.92299998 2.02399993
3.73699999 0.045 1.91499996
3.95799994 0.77899998 1.972
3.61700010 0.51899999 2.33200002
3.73699999 0.045 1.91499996
3.84200001 0.75400001 2.00399995
3.73699999 0.045 1.91499996
4.02799988 0.90600002 2.12599993
3.90100002 0.48100001 2.13100004
3.73399997 0.14300001 2.06599998
3.92199993 0.76599997 1.95500004
3.91300011 0.48699999 2.19899988
3.50699997 0.50400001 2.19000006
3.73699999 0.045 1.91499996
3.74099994 0.082 2.01099992
3.73699999 0.045 1.91499996
3.97399998 0.55800003 2.04299998
3.67300010 0.50400001 2.23300004
3.95499992 0.78299999 2.2190001
3.92300010 0.77399999 2.08200002
3.73699999 0.045 1.91499996
3.73699999 0.045 1.91499996
3.93700004 0.75599998 2.09500003
3.73699999 0.045 1.91499996
3.73699999 0.045 1.91499996
3.73699999 0.045 1.91499996
3.83800006 0.5 2.25500011
3.92899990 0.71499997 2.09800005
3.76500010 0.498 2.20900011
3.83899999 0.773 1.89600003
3.93600011 0.69300002 2.17700005
3.93000007 0.64600003 2.01699996
3.81500006 0.51700002 2.45600009
3.91899991 0.47600001 2.09699988
3.81999993 0.68300003 2.00399995
4.00299978 0.755 2.03600001
4.04699993 0.90399998 2.02399993
4.05399990 0.93099999 2.06699991
3.97300005 0.89499998 2.11400008
3.73699999 0.045 1.91499996
3.73699999 0.045 1.91499996
3.73699999 0.045 1.91499996
3.73699999 0.045 1.91499996
3.52399993 0.057 2.21000004
3.45199990 0.045 2.1730001
3.93400002 0.47799999 2.11800003
3.73699999 0.045 1.91499996
3.73399997 0.51099998 2.296
4.07499981 0.84399998 2.12400007
3.73699999 0.045 1.91499996
3.73699999 0.045 1.91499996
3.61899996 0.115 2.14899993
3.73699999 0.045 1.91499996
3.73699999 0.045 1.91499996
4.01300001 0.69099998 2.08200002
3.73699999 0.045 1.91499996
3.81200004 0.51800001 2.45099998
4.03499985 0.74599999 2.1960001
3.73699999 0.045 1.91499996
3.78299999 0.77899998 1.898
3.90300012 0.63 2.09200001
3.93600011 0.73699999 2.27999997
3.73699999 0.045 1.91499996
3.73699999 0.045 1.91499996
3.73699999 0.045 1.91499996
4.00000000 0.91600001 2.13400006
3.99799991 0.86699998 2.16100001
3.84999990 0.62400001 2.03399992
3.97900009 0.53500003 2.03999996
3.88899994 0.884 1.98800004
3.73699999 0.045 1.91499996
3.88100004 0.75099999 1.93700004
3.89400005 0.479 2.10599995
3.92700005 0.87300003 1.89300001
3.73699999 0.045 1.91499996
3.83200002 0.51200002 2.39899993
3.69499993 0.50400001 2.23699999
3.73699999 0.045 1.91499996
3.79399991 0.51999998 2.39100003
4.06300020 0.88200003 2.11999989
3.97900009 0.86699998 2.13100004
3.73699999 0.045 1.91499996
3.82699990 0.64700001 2.01300001
3.94400001 0.55400002 2.01399994
3.91499996 0.90200001 1.96200001
4.01300001 0.889 1.98500001
3.73300004 0.51300001 2.31800008
3.99300003 0.833 1.98500001
4.02400017 0.66299999 2.17600012
3.73699999 0.045 1.91499996
3.73699999 0.045 1.91499996
4.00699997 0.64300001 2.125
3.73799992 0.107 2.02699995
4.01999998 0.92500001 1.97599995
3.80100012 0.79000002 1.89300001
3.49200010 0.49599999 2.22300005
3.70799994 0.52499998 2.40199995
3.91499996 0.81900001 1.91799998
3.64199996 0.084 2.21399999
3.92700005 0.68199998 2.14499998
3.73699999 0.045 1.91499996
4.03100014 0.88999999 2.13100004
3.95700002 0.59899998 2.04200006
3.96399999 0.82200003 2.11899996
3.72099996 0.121 2.05200005
3.94700003 0.66299999 2.03200006
3.79999995 0.78100002 1.92499995
3.73699999 0.045 1.91499996
3.78399992 0.796 1.90600002
3.82399988 0.15700001 2.14899993
3.73699999 0.045 1.91499996
4.03299999 0.76200002 2.07500005
4.03399992 0.76800001 2.18600011
3.73699999 0.045 1.91499996
3.99399996 0.88599998 1.96000004
3.92499995 0.64499998 2.19300008
3.95900011 0.773 2.17400002
3.63700008 0.50400001 2.18300009
3.52999997 0.50999999 2.03999996
3.70099998 0.107 2.08200002
3.73699999 0.045 1.91499996
3.73099995 0.077 1.96899998
3.62199998 0.49399999 1.98899996
3.87400007 0.704 2.04699993
3.73699999 0.045 1.91499996
3.58800006 0.066 2.21300006
4.02500010 0.85100001 2.01900005
3.93499994 0.76999998 2.09200001
3.74799991 0.72299999 1.88999999
3.94799995 0.477 2.12100005
3.73699999 0.045 1.91499996
4.03200006 0.71399999 2.21199989
3.73699999 0.045 1.91499996
3.82200003 0.801 1.93900001
4.02400017 0.66399997 2.17499995
3.92700005 0.86199999 1.89999998
3.54500008 0.50999999 2.2750001
3.73699999 0.045 1.91499996
3.87899995 0.49900001 2.33200002
3.95700002 0.76800001 2.18899989
3.81399989 0.51700002 2.43400002
4.07399988 0.90200001 2.06200004
3.73699999 0.096 2.00999999
3.91100001 0.48699999 2.18199992
3.93099999 0.65200001 2.21199989
4.00799990 0.72600001 2.05800009
3.73699999 0.045 1.91499996
3.93600011 0.63800001 2.0250001
4.04500008 0.76499999 2.18300009
3.96700001 0.81800002 2.22099996
3.75699997 0.167 2.14100003
3.76500010 0.75700003 1.89699996
3.86199999 0.70099998 2.03800011
3.65799999 0.523 2.37599993
3.94700003 0.47400001 2.09299994
3.73699999 0.045 1.91499996
3.73699999 0.045 1.91499996
3.92799997 0.64099997 2.01600003
4.07000017 0.82200003 2.13400006
3.95000005 0.71899998 2.00300002
3.85700011 0.74699998 2.02999997
3.73699999 0.045 1.91499996
3.95499992 0.65700001 2.04099989
3.73699999 0.045 1.91499996
3.88299990 0.70899999 1.95799994
3.73699999 0.045 1.91499996
3.89100003 0.62800002 2.06699991
3.45799994 0.047 2.18400002
3.73699999 0.045 1.91499996
3.75000000 0.52399999 2.40700006
3.73699999 0.045 1.91499996
3.95000005 0.91799998 1.93099999
3.66799998 0.057 2.07399988
3.98300004 0.73299998 2.25
3.85299993 0.76599997 1.90900004
3.93799996 0.736 2.11500001
3.98799992 0.88999999 2.14499998
3.73699999 0.045 1.91499996
3.94300008 0.89899999 2.06299996
3.67400002 0.51899999 2.34599996
3.95300007 0.76899999 2.148
3.70600009 0.5 2.20700002
3.95600009 0.634 2.046
4.05499983 0.81900001 2.15300012
3.91499996 0.76599997 2.0769999
3.85100007 0.85799998 1.94500005
3.95400000 0.78600001 2.22600007
3.87299991 0.79500002 2.0250001
3.46099997 0.047 2.17799997
3.85400009 0.77100003 2.01099992
3.97700000 0.917 1.91999996
3.86500001 0.80699998 1.89199996
3.48799992 0.49000001 2.29500008
3.73699999 0.045 1.91499996
3.97700000 0.92299998 2.04200006
3.69899988 0.167 2.16799998
3.84899998 0.74900001 2.01999998
3.65899992 0.082 2.30200005
3.73699999 0.045 1.91499996
3.73699999 0.045 1.91499996
3.89899993 0.493 2.29900002
3.63899994 0.073 2.22300005
3.73699999 0.045 1.91499996
3.80200005 0.80000001 1.89699996
3.83599997 0.106 2.12299991
3.84299994 0.611 2.02900004
3.73699999 0.045 1.91499996
3.78399992 0.72399998 1.93700004
3.85700011 0.50599998 2.4000001
3.73699999 0.045 1.91499996
3.55500007 0.51099998 2.30599999
3.73699999 0.045 1.91499996
3.78399992 0.48500001 2.11800003
3.73699999 0.045 1.91499996
3.94099998 0.74199998 2.25600004
3.81200004 0.50599998 2.28900003
3.97099996 0.069 2.11100006
3.73699999 0.045 1.91499996
3.73699999 0.045 1.91499996
3.95799994 0.77700001 2.1960001
3.73699999 0.045 1.91499996
3.77500010 0.52700001 2.4519999
3.87500000 0.48800001 2.17400002
3.66300011 0.111 2.14700007
3.73699999 0.045 1.91499996
3.73699999 0.045 1.91499996
3.73699999 0.045 1.91499996
3.82100010 0.833 1.90199995
3.78399992 0.648 1.977
3.89599991 0.86000001 1.88
3.73699999 0.045 1.91499996
3.78500009 0.164 2.14499998
3.81100011 0.493 2.18799996
3.93300009 0.65899998 2.01799989
3.86199999 0.493 2.20300007
3.86500001 0.72299999 2.03900003
3.67199993 0.514 2.30900002
3.73699999 0.045 1.91499996
3.73699999 0.045 1.91499996
3.64199996 0.14 2.15199995
3.45099998 0.063 2.15300012
3.73699999 0.045 1.91499996
3.73699999 0.045 1.91499996
3.97000003 0.92199999 2.00699997
3.95300007 0.89999998 2.07999992
3.60800004 0.138 2.15300012
3.55900002 0.505 2.0309999
3.91499996 0.48800001 2.26300001
3.73699999 0.045 1.91499996
3.73699999 0.045 1.91499996
3.80699992 0.71600002 1.97399998
3.84999990 0.80000001 1.98399997
3.73699999 0.045 1.91499996
3.73699999 0.045 1.91499996
4.00299978 0.736 2.227
3.62700009 0.051 2.13800001
3.73699999 0.045 1.91499996
3.87199998 0.84200001 1.88
3.73699999 0.045 1.91499996
3.71199989 0.108 2.05100012
3.95300007 0.66100001 2.03900003
4.02299976 0.676 2.1500001
3.73699999 0.045 1.91499996
3.73699999 0.045 1.91499996
3.73699999 0.045 1.91499996
3.59800005 0.51300001 2.2190001
3.79299998 0.67500001 1.98199999
3.73699999 0.045 1.91499996
3.98000002 0.92299998 2.06800008
3.73699999 0.045 1.91499996
3.73699999 0.045 1.91499996
3.93300009 0.70200002 2.00200009
3.93099999 0.671 2.18400002
3.99799991 0.713 2.04999995
3.73699999 0.045 1.91499996
3.85200000 0.86400002 1.90199995
4.03000021 0.92900002 2.06299996
3.73699999 0.045 1.91499996
3.97600007 0.52200001 2.03299999
3.99099994 0.79100001 2.21000004
3.73699999 0.045 1.91499996
3.73699999 0.045 1.91499996
3.74799991 0.5 2.21399999
3.68499994 0.107 2.14199996
3.81200004 0.77700001 1.94000006
3.81399989 0.69300002 1.99899995
3.89800000 0.60799998 2.10400009
3.73699999 0.045 1.91499996
3.85999990 0.498 2.24099994
3.73699999 0.045 1.91499996
3.65799999 0.491 2.01900005
3.73699999 0.045 1.91499996
3.91799998 0.82800001 1.91400003
3.73699999 0.045 1.91499996
3.73699999 0.045 1.91499996
3.85800004 0.50400001 2.33500004
3.73699999 0.045 1.91499996
3.73699999 0.045 1.91499996
3.93400002 0.81599998 1.93200004
3.62700009 0.057 2.13899994
3.71900010 0.104 2.02099991
3.73699999 0.045 1.91499996
3.50600004 0.086 2.148
3.73699999 0.045 1.91499996
4.05000019 0.78799999 2.09100008
3.73699999 0.045 1.91499996
3.73699999 0.045 1.91499996
3.95199990 0.78500003 2.24000001
3.90199995 0.898 1.93599999
3.94000006 0.47799999 2.12400007
4.02699995 0.889 2.00399995
3.67499995 0.07 2.08200002
4.01700020 0.68000001 2.11199999
3.73699999 0.045 1.91499996
4.03100014 0.85600001 2.14700007
3.73699999 0.045 1.91499996
3.96300006 0.80400002 2.23399997
4.05200005 0.917 2.10899997
3.72399998 0.107 2.01399994
3.99200010 0.92400002 2.125
3.80500007 0.79299998 1.89199996
3.52999997 0.51499999 2.1329999
3.93799996 0.75099999 2.28699994
4.03900003 0.84299999 2.04299998
4.03299999 0.667 2.23300004
3.68000007 0.051 2.01799989
3.98699999 0.75800002 2.23200011
3.95199990 0.78200001 2.11800003
3.64599991 0.14300001 2.16599989
3.65499997 0.51899999 2.34500003
3.70900011 0.11 2.2190001
4.02500010 0.84600002 2.023
3.53399992 0.059 2.2190001
3.95099998 0.74000001 2.18499994
3.67600012 0.50700003 2.25399995
3.88499999 0.12 2.14100003
3.79699993 0.52100003 2.43099999
3.68000007 0.12899999 2.19199991
3.88899994 0.49599999 2.33299994
3.61599994 0.50099999 2.08899999
3.73699999 0.045 1.91499996
3.73699999 0.045 1.91499996
3.75699997 0.70200002 1.92700005
3.94300008 0.71200001 2.20900011
3.69799995 0.091 2.23099995
3.84899998 0.64200002 2.03200006
4.07499981 0.866 2.08299994
3.86299992 0.80199999 2.00399995
3.73699999 0.045 1.91499996
3.73000002 0.71600002 1.903
3.79600000 0.68099999 1.98300004
3.53200006 0.046 2.14100003
3.68799996 0.51899999 2.34899998
3.73699999 0.045 1.91499996
3.88499999 0.095 2.12199998
3.67700005 0.083 2.2809999
3.54600000 0.51099998 2.25699997
3.60899997 0.109 2.1789999
3.73699999 0.045 1.91499996
3.62400007 0.51599997 2.30999994
4.07000017 0.89099997 2.11199999
3.62899995 0.50300002 2.14700007
4.03399992 0.70300001 2.15899992
4.04899979 0.78600001 2.08999991
3.74000001 0.044 1.91100001
3.73699999 0.045 1.91499996
3.85800004 0.77700001 1.90600002
3.77300000 0.722 1.92999995
3.69400001 0.51700002 2.33400011
3.89899993 0.49599999 2.40899992
3.91799998 0.70499998 1.99000001
3.73499990 0.52999997 2.44400001
3.73699999 0.045 1.91499996
3.73699999 0.045 1.91499996
4.04400015 0.78500003 2.1730001
3.85599995 0.49399999 2.20900011
4.03999996 0.741 2.12100005
3.89599991 0.78399998 2.05900002
3.44099998 0.063 2.14899993
3.76900005 0.52499998 2.421
3.60400009 0.068 2.21199989
3.88700008 0.70899999 1.96200001
3.98399997 0.90700001 1.93499994
3.97799993 0.62800002 2.06999993
3.96000004 0.77700001 2.25099993
4.05200005 0.75599998 2.15899992
3.74300003 0.67400002 1.92900002
3.73699999 0.045 1.91499996
3.73699999 0.045 1.91499996
3.98399997 0.81199998 2.20600009
3.79500008 0.514 2.34100008
3.79699993 0.50199997 2.25399995
3.85700011 0.63599998 2.03900003
3.79500008 0.48100001 2.08800006
3.92100000 0.64700001 2.16899991
4.06799984 0.87199998 2.06900001
4.01200008 0.92699999 2.0480001
3.78399992 0.17399999 2.15100002
3.98699999 0.89200002 2.13100004
3.93300009 0.67699999 2.23399997
3.69300008 0.51200002 2.29699993
3.54800010 0.083 2.17600012
3.72700000 0.113 2.01900005
3.73699999 0.045 1.91499996
3.79800010 0.514 2.34100008
3.73699999 0.045 1.91499996
4.08599997 0.89200002 2.09500003
3.84999990 0.77999997 1.99899995
3.73699999 0.045 1.91499996
3.99300003 0.88999999 1.95500004
3.83899999 0.50999999 2.40499997
3.51999998 0.50300002 2.25300002
3.73699999 0.045 1.91499996
3.73699999 0.045 1.91499996
3.73699999 0.045 1.91499996
3.99799991 0.66900003 2.07299995
3.73699999 0.045 1.91499996
3.73699999 0.045 1.91499996
3.73699999 0.045 1.91499996
4.07700014 0.85799998 2.11199999
3.73699999 0.045 1.91499996
3.84599996 0.82099998 1.96300006
3.94700003 0.889 1.89600003
4.02199984 0.92799997 1.98599994
3.73699999 0.045 1.91499996
3.94099998 0.91000003 2.01399994
3.75600004 0.176 2.14599991
3.73699999 0.045 1.91499996
3.98200011 0.87400001 2.13400006
3.73699999 0.045 1.91499996
3.73699999 0.095 2.00999999
3.63299990 0.086 2.14400005
3.75999999 0.51599997 2.34699988
4.03599977 0.67900002 2.22600007
3.44199991 0.044 2.18000007
3.63800001 0.49399999 2.03800011
3.70700002 0.109 2.06500006
3.94799995 0.80500001 2.0999999
3.73699999 0.045 1.91499996
3.73699999 0.045 1.91499996
4.00099993 0.926 1.99800003
3.73699999 0.045 1.91499996
3.94199991 0.71799999 2.22399998
3.65100002 0.493 2.046
3.73000002 0.079 1.96599996
3.83999991 0.50199997 2.2650001
4.03499985 0.85000002 2.03299999
4.05999994 0.77700001 2.16400003
3.73699999 0.045 1.91499996
3.95300007 0.796 2.24300003
3.79800010 0.81099999 1.90499997
4.00699997 0.76499999 2.03800011
3.79900002 0.50199997 2.24900007
3.73699999 0.045 1.91499996
3.56699991 0.514 2.31599998
3.69600010 0.14399999 2.18600011
3.70700002 0.117 2.21300006
3.73699999 0.045 1.91499996
3.47900009 0.47499999 2.14199996
3.97499990 0.81599998 1.96700001
3.73699999 0.045 1.91499996
4.04400015 0.71899998 2.18300009
3.59699988 0.50099999 2.05200005
3.73699999 0.045 1.91499996
3.93099999 0.861 1.903
3.72300005 0.12 2.04699993
3.63800001 0.054 2.13800001
3.73699999 0.045 1.91499996
4.08799982 0.89600003 2.09800005
3.76999998 0.755 1.91499996
3.75900006 0.505 2.2579999
3.65000010 0.50300002 2.18700004
3.90000010 0.12 2.14299989
3.62800002 0.5 2.10899997
4.01499987 0.86000001 2.00099993
3.86800003 0.88499999 1.91199994
3.81999993 0.514 2.37299991
3.89000010 0.48500001 2.15300012
3.73699999 0.045 1.91499996
3.98000002 0.87599999 2.17600012
3.88599992 0.68800002 1.96399999
3.95799994 0.64399999 2.04699993
3.82500005 0.13500001 2.13700008
3.65400004 0.51499999 2.31500006
3.95499992 0.764 2.16300011
3.90400004 0.61500001 2.12700009
3.72799993 0.15700001 2.11400008
3.64199996 0.50700003 2.23699999
3.87899995 0.88599998 1.97000003
3.90899992 0.71899998 1.97599995
3.69899988 0.116 2.11299992
3.73699999 0.045 1.91499996
3.83599997 0.78200001 1.88800001
3.73699999 0.045 1.91499996
3.90000010 0.847 1.89100003
3.77500010 0.5 2.2249999
3.73699999 0.045 1.91499996
3.73699999 0.045 1.91499996
3.65300012 0.509 2.26799989
4.05000019 0.75300002 2.15400004
3.80900002 0.51899999 2.44400001
4.01200008 0.75300002 2.20799994
3.73699999 0.045 1.91499996
3.77999997 0.74599999 1.92499995
4.00299978 0.903 1.96399999
3.89800000 0.89099997 1.99699998
3.73699999 0.045 1.91499996
3.73699999 0.045 1.91499996
3.90000010 0.49399999 2.34699988
3.72700000 0.50400001 2.23900008
3.54800010 0.51700002 2.18600011
3.87299991 0.75400001 1.92999995
3.73699999 0.045 1.91499996
3.73699999 0.045 1.91499996
3.69000006 0.498 2.18700004
3.95499992 0.79000002 2.227
3.95499992 0.77200001 2.15199995
3.95400000 0.85399997 2.10100007
3.73699999 0.045 1.91499996
3.73699999 0.045 1.91499996
3.73699999 0.045 1.91499996
3.97199988 0.77899998 2.23699999
3.96900010 0.92199999 1.95799994
3.73699999 0.045 1.91499996
3.65700006 0.093 2.21199989
3.96300006 0.88999999 2.10299993
4.02199984 0.68300003 2.13100004
3.91599989 0.74900001 1.96200001
3.98000002 0.85799998 2.1500001
3.81299996 0.479 2.07999992
3.76699996 0.169 2.14499998
4.05299997 0.80599999 2.08100009
3.73699999 0.045 1.91499996
3.68499994 0.49599999 2.16400003
3.95000005 0.73400003 2.18899989
3.77900004 0.162 2.14299989
3.87400007 0.80800003 2.01699996
3.73699999 0.045 1.91499996
4.00299978 0.86400002 1.98300004
3.97900009 0.90200001 2.11800003
3.59800005 0.126 2.15100002
3.73699999 0.045 1.91499996
3.77399993 0.52600002 2.43000007
3.91400003 0.83600003 2.06200004
3.68600011 0.49399999 2.14700007
3.48600006 0.48899999 2.10299993
4.00799990 0.72299999 2.22900009
3.91300011 0.486 2.171
3.70499992 0.51800001 2.34299994
3.66300011 0.49399999 2.09100008
3.80999994 0.65899998 1.99800003
3.73699999 0.045 1.91499996
3.54299998 0.509 2.2750001
3.58899999 0.087 2.18899989
3.96199989 0.685 2.03200006
3.93099999 0.76700002 1.96099997
3.73699999 0.045 1.91499996
3.99600005 0.81999999 2.19000006
4.00299978 0.82499999 2.00200009
3.91799998 0.486 2.20499992
3.93400002 0.89700001 2.05100012
3.75300002 0.68699998 1.93099999
3.70300007 0.50599998 2.25
3.82800007 0.49000001 2.16700006
3.73699999 0.045 1.91499996
3.88000011 0.5 2.39400005
3.97700000 0.92000002 1.91799998
3.94499993 0.72399998 2.1730001
3.83200002 0.83499998 1.92999995
3.79800010 0.66900003 1.98800004
4.02799988 0.90600002 1.99600005
3.87299991 0.81 1.89600003
3.79399991 0.773 1.88800001
3.61100006 0.51300001 2.24499989
4.02199984 0.70300001 2.0940001
3.84699988 0.84799999 1.94599998
3.74799991 0.162 2.12299991
3.64100003 0.081 2.21600008
3.96499991 0.92199999 1.94500005
4.06099987 0.84799999 2.0710001
3.73499990 0.49399999 2.16700006
3.58100009 0.51899999 2.30900002
4.03900003 0.69700003 2.19400001
3.86999989 0.69599998 2.04399991
4.03900003 0.852 2.03900003
3.99300003 0.92000002 2.12800002
3.89299989 0.491 2.20000005
3.70900011 0.061 1.95599997
3.55500007 0.514 2.14299989
3.71300006 0.085 1.99600005
3.48399997 0.49599999 2.1789999
3.53399992 0.51200002 2.19700003
3.73600006 0.53100002 2.4519999
3.73699999 0.045 1.91499996
3.83899999 0.47999999 2.09599996
3.91599989 0.829 1.91199994
3.88400006 0.83499998 1.88800001
3.82699990 0.81099999 1.94000006
3.95499992 0.778 1.97000003
3.94499993 0.71399999 2.2019999
3.61800003 0.071 2.22900009
3.97900009 0.89999998 1.93099999
3.73699999 0.045 1.91499996
3.67199993 0.5 2.19300008
3.93700004 0.55000001 2.00600004
3.91400003 0.47799999 2.10899997
3.78999996 0.65799999 1.98199999
4.05499983 0.78600001 2.12199998
3.64700007 0.103 2.20000005
3.73699999 0.045 1.91499996
3.47900009 0.05 2.19199991
3.81599998 0.14300001 2.1400001
3.75900006 0.50099999 2.227
3.73699999 0.045 1.91499996
3.74200010 0.50099999 2.2249999
3.73699999 0.045 1.91499996
3.73699999 0.045 1.91499996
3.85899997 0.77700001 2.01600003
4.07100010 0.84100002 2.10500002
4.05200005 0.93099999 2.04699993
3.73699999 0.045 1.91499996
3.87400007 0.833 1.88199997
3.73699999 0.045 1.91499996
3.73699999 0.045 1.91499996
3.53200006 0.51499999 2.14499998
3.87800002 0.86299998 1.98500001
3.73699999 0.045 1.91499996
3.73699999 0.045 1.91499996
3.73699999 0.045 1.91499996
3.97099996 0.92199999 1.92200005
3.73699999 0.045 1.91499996
3.96099997 0.801 2.13899994
3.72499990 0.11 2.01799989
3.73699999 0.045 1.91499996
3.78200006 0.495 2.19300008
3.92700005 0.64099997 2.0150001
3.67000008 0.49399999 2.10599995
3.73699999 0.045 1.91499996
3.70099998 0.121 2.20700002
3.93700004 0.88800001 2.06200004
3.99399996 0.61299998 2.08100009
3.93000007 0.88800001 1.88600004
3.73699999 0.045 1.91499996
3.73699999 0.045 1.91499996
3.67600012 0.083 2.28299999
4.04799986 0.84299999 2.05599999
3.77800012 0.486 2.12299991
3.73699999 0.045 1.91499996
3.73699999 0.045 1.91499996
3.91300011 0.787 1.93700004
3.73699999 0.045 1.91499996
3.91899991 0.90100002 1.99800003
4.03900003 0.76099998 2.08299994
3.49900007 0.49399999 2.27999997
3.74799991 0.52399999 2.4000001
3.99200010 0.69499999 2.26099992
3.73699999 0.045 1.91499996
4.03399992 0.69 2.1789999
3.86599994 0.866 1.89499998
3.95099998 0.79299998 1.95799994
3.73699999 0.045 1.91499996
3.68000007 0.066 2.04999995
3.97499990 0.921 2.06900001
3.91899991 0.60500002 2.0079999
3.73699999 0.045 1.91499996
3.73699999 0.045 1.91499996
4.01900005 0.84799999 2.15700006
3.73699999 0.045 1.91499996
3.82399988 0.83499998 1.90100002
3.73699999 0.045 1.91499996
3.93099999 0.65200001 2.21600008
3.84500003 0.50400001 2.28299999
3.73699999 0.045 1.91499996
3.73699999 0.045 1.91499996
3.79800010 0.51999998 2.38899994
3.73699999 0.045 1.91499996
3.76300001 0.63 1.96099997
3.73699999 0.045 1.91499996
4.05200005 0.76599997 2.13899994
3.93700004 0.78600001 2.09299994
3.96900010 0.792 2.23399997
3.73699999 0.045 1.91499996
3.74099994 0.72600001 1.89600003
3.67400002 0.142 2.17799997
3.73699999 0.045 1.91499996
3.73699999 0.045 1.91499996
3.88299990 0.84600002 1.88
3.73699999 0.045 1.91499996
3.92300010 0.85399997 1.90199995
3.73699999 0.045 1.91499996
3.90899992 0.63800001 2.11500001
3.82999992 0.50800002 2.30900002
4.01000023 0.73000002 2.05800009
3.73699999 0.045 1.91499996
3.75500011 0.51599997 2.34200001
3.47300005 0.46399999 2.18300009
3.90899992 0.90100002 1.93200004
3.65599990 0.52200001 2.3670001
3.53900003 0.51099998 2.22799993
3.70300007 0.49700001 2.18099999
3.97199988 0.84600002 1.949
3.56800008 0.117 2.15499997
3.70099998 0.509 2.27399993
3.73699999 0.045 1.91499996
3.59699988 0.068 2.22399998
3.73699999 0.045 1.91499996
3.82200003 0.71799999 1.99800003
3.66700006 0.113 2.14700007
3.73699999 0.045 1.91499996
3.76600003 0.685 1.94000006
3.73699999 0.045 1.91499996
3.90499997 0.64899999 2.0769999
3.93199992 0.69300002 2.00699997
3.68400002 0.495 2.1500001
3.73699999 0.045 1.91499996
3.99099994 0.84100002 2.18300009
4.00000000 0.85100001 2.16799998
3.93400002 0.63200003 2.02399993
3.98799992 0.78899997 1.99899995
4.07100010 0.852 2.08999991
3.90300012 0.61299998 2.125
3.73699999 0.045 1.91499996
3.56800008 0.50700003 2.07500005
3.66300011 0.141 2.15100002
3.47600007 0.48800001 2.26699996
3.73699999 0.045 1.91499996
4.00299978 0.87099999 2.15499997
3.98200011 0.91299999 1.92900002
3.73699999 0.045 1.91499996
3.73699999 0.045 1.91499996
3.70499992 0.505 2.24600005
3.73699999 0.045 1.91499996
3.61199999 0.50599998 2.14899993
3.73699999 0.045 1.91499996
3.73699999 0.045 1.91499996
3.73000002 0.509 2.28600001
4.03200006 0.71899998 2.11800003
3.65899992 0.047 2.08100009
3.91700006 0.66500002 2.0
3.76200008 0.639 1.95799994
3.73699999 0.045 1.91499996
3.73699999 0.045 1.91499996
3.80299997 0.74400002 1.94799995
3.60599995 0.50199997 2.08299994
3.73699999 0.045 1.91499996
3.51900005 0.062 2.18199992
3.88499999 0.86199999 1.99600005
3.85700011 0.47999999 2.10700011
3.83699989 0.78399998 1.88699996
3.91400003 0.90200001 1.94400001
3.63599992 0.065 2.1400001
3.73699999 0.045 1.91499996
3.73699999 0.045 1.91499996
3.89199996 0.70599997 1.96800005
3.73699999 0.045 1.91499996
3.78299999 0.699 1.949
3.98799992 0.546 2.05200005
3.83999991 0.5 2.25
3.54200006 0.073 2.18199992
3.73699999 0.045 1.91499996
3.68000007 0.48800001 2.04399991
4.04300022 0.833 2.05299997
3.61999989 0.495 1.99899995
3.92499995 0.75099999 1.96599996
3.73900008 0.72899997 1.89900005
3.73699999 0.045 1.91499996
3.75799990 0.634 1.95599997
3.84299994 0.50800002 2.35400009
3.80100012 0.50999999 2.31500006
3.71099997 0.51800001 2.34500003
3.73699999 0.045 1.91499996
3.73699999 0.045 1.91499996
4.01000023 0.72500002 2.22600007
3.86800003 0.5 2.29399991
3.51900005 0.51200002 2.1329999
3.83899999 0.13600001 2.14100003
3.78999996 0.662 1.98199999
3.73699999 0.045 1.91499996
3.96199989 0.736 2.27099991
3.93799996 0.69300002 2.18499994
3.73699999 0.045 1.91499996
3.98600006 0.91299999 2.12400007
3.56900001 0.081 2.14499998
3.83999991 0.509 2.3440001
3.78699994 0.634 1.98199999
3.91899991 0.65200001 2.14700007
3.76099992 0.51099998 2.3039999
3.93199992 0.66000003 2.21700001
3.79299998 0.51700002 2.36400008
3.73699999 0.045 1.91499996
3.71399999 0.50800002 2.27399993
4.00099993 0.76300001 2.21499991
3.66700006 0.495 2.11199999
3.96799994 0.824 2.13800001
3.73699999 0.045 1.91499996
3.79999995 0.71899998 1.96099997
3.84800005 0.114 2.13000011
3.85299993 0.087 2.11100006
3.89499998 0.87 1.88199997
3.94799995 0.91100001 2.04299998
3.50300002 0.50199997 2.19000006
4.02899981 0.65200001 2.21799994
3.64700007 0.107 2.14700007
3.68400002 0.51599997 2.32500005
3.93799996 0.704 2.2349999
3.73699999 0.045 1.91499996
3.73699999 0.045 1.91499996
3.88000011 0.89099997 1.90100002
3.73699999 0.045 1.91499996
3.85299993 0.87800002 1.92900002
3.67700005 0.49000001 2.06900001
4.02099991 0.84600002 2.01699996
3.71799994 0.67199999 1.91199994
3.65700006 0.138 2.15100002
3.68700004 0.50400001 2.2349999
3.73699999 0.045 1.91499996
4.00099993 0.69599998 2.06299996
3.99699998 0.63599998 2.08599997
3.65199995 0.097 2.20700002
3.99699998 0.67299998 2.06900001
3.52300000 0.514 2.12199998
3.73699999 0.045 1.91499996
3.81200004 0.77200001 1.94200003
3.88100004 0.61299998 2.05999994
3.93199992 0.85399997 2.079
3.87500000 0.84899998 1.88199997
4.05299997 0.77200001 2.13400006
3.89000010 0.493 2.22000003
3.69300008 0.49700001 2.18099999
3.49099994 0.054 2.17700005
3.68499994 0.498 2.18799996
3.90400004 0.898 1.94599998
3.61599994 0.505 2.148
4.07800007 0.86799997 2.09899998
3.95199990 0.73900002 1.99199998
3.77099991 0.505 2.26399994
3.73699999 0.045 1.91499996
4.04600000 0.93099999 2.06999993
3.73699999 0.045 1.91499996
3.63100004 0.51200002 2.28399992
3.73699999 0.045 1.91499996
3.73699999 0.045 1.91499996
3.58599997 0.51599997 2.24799991
3.78800011 0.48899999 2.14499998
3.62899995 0.49599999 2.04999995
3.79600000 0.51200002 2.32500005
3.96499991 0.82099998 1.95099998
4.03599977 0.92900002 2.00200009
3.73699999 0.045 1.91499996
4.06799984 0.83399999 2.10500002
3.73699999 0.045 1.91499996
4.01499987 0.81599998 2.023
3.73699999 0.045 1.91499996
3.77200007 0.509 2.29500008
3.73699999 0.509 2.28699994
3.76200008 0.491 2.15100002
3.82900000 0.76200002 1.89300001
3.73699999 0.045 1.91499996
3.73699999 0.045 1.91499996
3.73699999 0.045 1.91499996
3.80999994 0.484 2.11400008
3.98000002 0.87 2.16499996
3.95099998 0.77600002 2.12100005
3.96399999 0.90100002 1.90900004
4.05299997 0.78899997 2.10599995
3.73699999 0.045 1.91499996
3.73699999 0.045 1.91499996
3.75200009 0.161 2.13800001
3.54200006 0.097 2.14899993
3.73699999 0.045 1.91499996
3.88599992 0.76899999 1.92900002
3.73699999 0.045 1.91499996
3.73699999 0.045 1.91499996
3.83500004 0.107 2.12400007
3.73699999 0.045 1.91499996
3.91899991 0.90399998 1.95799994
4.03399992 0.77700001 2.06900001
3.70199990 0.091 2.04200006
4.06699991 0.80800003 2.14599991
3.93400002 0.68699998 2.171
3.73699999 0.045 1.91499996
3.60500002 0.105 2.18000007
3.54600000 0.107 2.15499997
3.89700007 0.70599997 2.06599998
3.55200005 0.51200002 2.11999989
3.79500008 0.80900002 1.90600002
3.80999994 0.50599998 2.28600001
3.78500009 0.78100002 1.91400003
3.72199988 0.69999999 1.90400004
3.71099997 0.049 1.92200005
3.73699999 0.045 1.91499996
3.93099999 0.70499998 1.99800003
3.87700009 0.73199999 1.94599998
3.72399998 0.48500001 2.09200001
3.78999996 0.49000001 2.15799999
3.74099994 0.648 1.93900001
3.73699999 0.045 1.91499996
3.91700006 0.648 2.14599991
3.86800003 0.50300002 2.3829999
3.73699999 0.045 1.91499996
3.51399994 0.058 2.18300009
3.64800000 0.493 2.04999995
4.01900005 0.73799998 2.20900011
3.96099997 0.78299999 2.18600011
4.01200008 0.91000003 2.13100004
3.73699999 0.045 1.91499996
3.59800005 0.50800002 2.16000009
3.76999998 0.486 2.1170001
3.73699999 0.045 1.91499996
3.73699999 0.045 1.91499996
3.65599990 0.50999999 2.27399993
4.05600023 0.75599998 2.18099999
3.73699999 0.045 1.91499996
3.73699999 0.045 1.91499996
3.56500006 0.50800002 2.08899999
3.88400006 0.76499999 2.05100012
3.82399988 0.50800002 2.30800009
3.51099992 0.50599998 2.17199993
3.89299989 0.89399999 1.94000006
3.97700000 0.85399997 2.19099998
3.66300011 0.082 2.14199996
4.05700016 0.82999998 2.07399988
3.73699999 0.045 1.91499996
3.73699999 0.045 1.91499996
4.00299978 0.713 2.05599999
3.94000006 0.704 2.22300005
3.90100002 0.81900001 2.0539999
3.73699999 0.045 1.91499996
3.73699999 0.045 1.91499996
3.73699999 0.045 1.91499996
3.96199989 0.86699998 1.92299998
3.95600009 0.80199999 1.95599997
3.73699999 0.045 1.91499996
4.00799990 0.64999998 2.11599994
3.73699999 0.045 1.91499996
3.96900010 0.83600003 2.1960001
3.58800006 0.124 2.15799999
3.85899997 0.87199998 1.90199995
3.79800010 0.52100003 2.44300008
3.73699999 0.045 1.91499996
3.48099995 0.48100001 2.14899993
3.59500003 0.49900001 2.01699996
3.73699999 0.045 1.91499996
3.73699999 0.045 1.91499996
4.05000019 0.76899999 2.12599993
3.73699999 0.045 1.91499996
3.65100002 0.082 2.2190001
3.94499993 0.773 2.0999999
3.76099992 0.486 2.11199999
3.99699998 0.76099998 2.0250001
4.02600002 0.92500001 1.98399997
3.83299994 0.51099998 2.39400005
3.73699999 0.045 1.91499996
3.96799994 0.82599998 2.13599992
3.70300007 0.124 2.20499992
3.73699999 0.045 1.91499996
4.05399990 0.764 2.15499997
3.73699999 0.045 1.91499996
3.48900008 0.493 2.079
3.95400000 0.54400003 2.01999998
3.89299989 0.60500002 2.07999992
3.88000011 0.1 2.12599993
3.65100002 0.152 2.16100001
3.73699999 0.045 1.91499996
3.73699999 0.045 1.91499996
3.73699999 0.045 1.91499996
3.90700006 0.61799997 2.13800001
3.78299999 0.14 2.13199997
3.88800001 0.484 2.14400005
4.03200006 0.68199998 2.227
3.73699999 0.045 1.91499996
3.81999993 0.67000002 2.00500011
3.95700002 0.77700001 1.972
3.73699999 0.045 1.91499996
3.72000003 0.50199997 2.22300005
3.79900002 0.51599997 2.35700011
3.85599995 0.50700003 2.43199992
3.90100002 0.479 2.11400008
4.03299999 0.92900002 2.00600004
3.48200011 0.47799999 2.10299993
3.57399988 0.509 2.12199998
4.01000023 0.78200001 2.19499993
3.98699999 0.89300001 2.1329999
3.72600007 0.15899999 2.18499994
3.73699999 0.045 1.91499996
3.94700003 0.745 2.15199995
3.91000009 0.676 1.99100006
3.77399993 0.50700003 2.28500009
3.83999991 0.76700002 1.89900005
3.73699999 0.045 1.91499996
3.73699999 0.045 1.91499996
3.73900008 0.52399999 2.398
3.96300006 0.83999997 2.1099999
3.73699999 0.045 1.91499996
3.89199996 0.70999998 1.96700001
3.73699999 0.045 1.91499996
3.85800004 0.833 1.88300002
3.96900010 0.84299999 2.20000005
3.73699999 0.045 1.91499996
3.73699999 0.045 1.91499996
3.60700011 0.498 2.02699995
3.73799992 0.124 2.04200006
3.66499996 0.079 2.22799993
3.58100009 0.51099998 2.16199994
3.73799992 0.126 2.04699993
3.89800000 0.493 2.28800011
3.92700005 0.87400001 1.89199996
3.73699999 0.045 1.91499996
3.71300006 0.50199997 2.22099996
3.95900011 0.79900002 2.21499991
3.85999990 0.60399997 2.04399991
3.96399999 0.58600003 2.04399991
3.92300010 0.64700001 2.18000007
3.73699999 0.045 1.91499996
3.73699999 0.045 1.91499996
3.84500003 0.12 2.1329999
3.99000001 0.83999997 1.97599995
3.73699999 0.045 1.91499996
3.96199989 0.56199998 2.03399992
