# .PCD v0.7 - Point Cloud Data file format
VERSION 0.7
FIELDS x y z
SIZE 4 4 4
TYPE F F F
COUNT 1 1 1
WIDTH 1454
HEIGHT 1
VIEWPOINT 0 0 0 1 0 0 0
POINTS 1454
DATA ascii
3.96799994 0.71399999 5.52899981
2.92799997 0.384 5.9289999
2.74799991 0.80400002 6.20900011
2.55800009 0.43399999 5.79899979
4.22800016 0.33399999 5.46899986
3.34800005 0.74400002 5.84899998
2.91799998 0.53399998 5.91900015
2.76799989 0.80400002 6.08900023
2.75799990 0.78399998 5.86899996
3.90799999 0.73400003 5.52899981
4.33799982 0.60399997 5.65899992
2.51799989 0.154 5.78900003
4.20800018 0.60399997 5.52899981
3.89800000 0.78399998 5.51900005
3.43799996 0.75400001 5.85900021
3.54800010 0.764 5.73899984
2.90799999 0.47400001 5.829
4.02799988 0.81400001 5.58900023
4.29799986 0.69400001 5.53900003
2.65799999 0.61400002 5.80900002
3.01799989 0.78399998 6.1789999
3.91799998 0.74400002 5.51900005
2.81800008 0.484 5.79899979
3.66799998 0.79400003 6.13899994
2.71799994 0.80400002 6.079
3.80800009 0.78399998 6.29899979
4.33799982 0.65399998 5.68900013
3.83800006 0.78399998 6.27899981
2.92799997 0.414 5.90899992
3.27800012 0.79400003 6.24900007
4.33799982 0.66399997 5.60900021
2.51799989 0.22400001 5.78900003
3.41799998 0.764 5.91900015
3.57800007 0.79400003 6.20900011
2.77800012 0.78399998 5.90899992
4.24800014 0.62400001 5.579
3.73799992 0.78399998 5.74900007
3.61800003 0.79400003 5.98899984
3.07800007 0.77399999 5.87900019
2.84800005 0.78399998 6.22900009
3.58800006 0.764 5.74900007
4.20800018 0.62400001 5.53900003
3.74799991 0.79400003 5.77899981
4.05800009 0.69400001 5.52899981
3.92799997 0.69400001 5.52899981
3.17799997 0.77399999 5.88899994
3.98799992 0.69400001 5.54899979
3.72799993 0.68400002 5.56899977
2.72799993 0.574 5.79899979
2.61800003 0.79400003 5.89900017
2.71799994 0.77399999 5.84899998
4.20800018 0.134 5.99900007
3.70799994 0.79400003 5.81899977
4.33799982 0.414 5.63899994
4.33799982 0.50400001 5.61899996
4.26800013 0.114 5.44899988
3.81800008 0.68400002 5.52899981
2.89800000 0.68400002 5.80900002
2.98799992 0.78399998 6.1789999
3.51799989 0.764 5.84899998
2.91799998 0.40400001 6.04899979
3.35800004 0.72399998 5.83900023
3.94799995 0.68400002 5.53900003
4.33799982 0.56400001 5.55900002
4.33799982 0.58399999 5.63899994
3.08800006 0.80400002 6.27899981
4.25799990 0.14399999 5.43900013
2.53800011 0.134 5.80900002
2.77800012 0.80400002 6.04899979
4.10799980 0.83399999 5.56899977
2.73799992 0.77399999 5.81899977
4.27799988 0.264 5.46899986
3.12800002 0.79400003 6.23899984
2.84800005 0.27399999 5.79899979
3.52800012 0.75400001 5.68900013
4.33799982 0.31400001 5.53900003
4.33799982 0.49399999 5.59899998
4.23799992 0.37400001 5.46899986
3.54800010 0.764 5.75899982
3.89800000 0.824 5.75899982
2.91799998 0.49399999 5.90899992
3.62800002 0.75400001 5.61899996
3.60800004 0.79400003 6.09899998
4.31799984 0.43399999 5.50899982
2.90799999 0.384 6.16900015
2.54800010 0.40400001 5.79899979
2.83800006 0.66399997 5.80900002
4.28800011 0.634 5.51900005
4.12799978 0.75400001 5.51900005
3.93799996 0.80400002 5.579
4.29799986 0.65399998 5.52899981
3.40799999 0.79400003 6.19899988
2.86800003 0.67400002 5.80900002
2.78800011 0.324 5.79899979
4.19799995 0.14399999 6.00899982
3.26799989 0.79400003 6.31899977
3.75799990 0.78399998 5.64900017
3.17799997 0.78399998 5.9289999
2.70799994 0.79400003 5.91900015
3.59800005 0.79400003 5.96899986
3.88800001 0.77399999 6.28900003
3.87800002 0.68400002 5.53900003
2.57800007 0.39399999 5.79899979
2.90799999 0.49399999 6.08900023
4.22800016 0.78399998 5.54899979
2.55800009 0.54400003 5.79899979
2.95799994 0.79400003 5.94899988
3.11800003 0.74400002 5.829
2.84800005 0.78399998 5.88899994
4.22800016 0.204 5.44899988
4.27799988 0.40400001 5.46899986
2.65799999 0.044 5.87900019
2.58800006 0.054 5.84899998
3.75799990 0.79400003 5.80900002
3.65799999 0.79400003 6.03900003
3.65799999 0.74400002 5.53900003
4.34800005 0.79400003 5.69899988
2.92799997 0.78399998 6.27899981
3.41799998 0.79400003 6.26900005
3.33800006 0.78399998 6.13899994
2.67799997 0.78399998 5.85900021
4.31799984 0.60399997 5.51900005
3.74799991 0.80400002 5.90899992
3.88800001 0.704 5.52899981
3.78800011 0.78399998 5.55900002
3.81800008 0.80400002 5.79899979
4.04799986 0.79400003 5.51900005
3.06800008 0.764 5.85900021
3.51799989 0.75400001 5.68900013
3.79800010 0.80400002 5.97900009
2.78800011 0.79400003 5.96899986
3.29800010 0.78399998 5.95900011
2.55800009 0.244 5.79899979
4.32800007 0.50400001 5.72900009
3.26799989 0.79400003 6.02899981
3.94799995 0.69400001 5.55900002
2.81800008 0.78399998 6.19899988
2.53800011 0.824 6.1789999
2.97799993 0.79400003 5.97900009
2.50799990 0.42399999 5.79899979
2.95799994 0.80400002 6.01900005
3.35800004 0.79400003 6.00899982
2.49799991 0.39399999 5.79899979
4.22800016 0.53399998 5.61899996
3.42799997 0.79400003 6.00899982
2.60800004 0.81400001 6.22900009
2.83800006 0.43399999 5.79899979
3.73799992 0.78399998 5.68900013
3.07800007 0.79400003 6.08900023
2.91799998 0.58399999 5.93900013
3.67799997 0.78399998 6.19899988
3.80800009 0.80400002 6.079
4.30800009 0.56400001 5.50899982
2.97799993 0.79400003 6.04899979
3.17799997 0.79400003 6.01900005
4.10799980 0.81400001 5.53900003
4.32800007 0.52399999 5.68900013
3.80800009 0.80400002 5.76900005
3.13800001 0.79400003 6.22900009
3.94799995 0.824 5.9289999
2.72799993 0.74400002 5.80900002
2.53800011 0.324 5.79899979
4.32800007 0.84399998 5.63899994
3.30800009 0.78399998 6.13899994
3.68799996 0.79400003 5.91900015
3.88800001 0.824 5.83900023
2.91799998 0.454 5.91900015
4.33799982 0.59399998 5.51900005
2.74799991 0.78399998 5.88899994
3.55800009 0.77399999 5.88899994
3.04800010 0.72399998 5.80900002
2.80800009 0.78399998 5.88899994
3.24799991 0.79400003 6.27899981
2.49799991 0.294 5.79899979
4.33799982 0.61400002 5.56899977
2.91799998 0.384 6.03900003
2.66799998 0.234 5.79899979
2.68799996 0.72399998 5.80900002
2.96799994 0.79400003 6.27899981
3.91799998 0.81400001 6.04899979
2.62800002 0.80400002 5.97900009
4.32800007 0.43399999 5.73899984
3.18799996 0.75400001 5.86899996
2.90799999 0.30399999 5.83900023
3.17799997 0.79400003 5.98899984
3.31800008 0.79400003 6.02899981
3.77800012 0.79400003 5.74900007
2.78800011 0.79400003 6.12900019
2.97799993 0.78399998 5.91900015
3.84800005 0.80400002 5.65899992
3.58800006 0.79400003 6.23899984
3.38800001 0.74400002 5.81899977
2.97799993 0.79400003 6.27899981
2.79800010 0.68400002 5.80900002
4.20800018 0.384 5.48899984
3.07800007 0.79400003 6.10900021
4.11800003 0.81400001 5.97900009
2.95799994 0.73400003 5.81899977
3.50799990 0.75400001 5.77899981
4.32800007 0.44400001 5.51900005
2.50799990 0.80400002 5.98899984
2.47799993 0.354 5.79899979
3.69799995 0.78399998 6.21899986
2.90799999 0.47400001 6.08900023
4.33799982 0.81400001 5.69899988
3.33800006 0.79400003 6.28900003
3.09800005 0.78399998 6.1789999
2.99799991 0.79400003 6.11899996
4.33799982 0.54400003 5.60900021
2.71799994 0.79400003 6.14900017
2.90799999 0.44400001 5.84899998
3.78800011 0.80400002 6.18900013
3.87800002 0.78399998 5.51900005
4.33799982 0.79400003 5.81899977
2.62800002 0.80400002 6.08900023
2.61800003 0.294 5.79899979
3.29800010 0.78399998 5.93900013
4.23799992 0.084 5.44899988
3.86800003 0.80400002 5.66900015
3.71799994 0.79400003 6.25899982
4.14799976 0.81400001 5.98899984
3.24799991 0.79400003 6.00899982
3.88800001 0.78399998 5.52899981
2.72799993 0.67400002 5.80900002
4.28800011 0.114 5.47900009
4.27799988 0.704 5.53900003
4.22800016 0.52399999 5.63899994
4.28800011 0.42399999 5.47900009
2.48799992 0.124 5.77899981
2.83800006 0.414 5.79899979
4.23799992 0.214 5.97900009
2.65799999 0.49399999 5.79899979
3.83800006 0.79400003 6.26900005
2.73799992 0.50400001 5.79899979
3.47799993 0.77399999 5.93900013
4.11800003 0.824 6.00899982
4.33799982 0.34400001 5.63899994
3.93799996 0.79400003 5.52899981
3.88800001 0.79400003 5.58900023
3.74799991 0.71399999 5.53900003
3.18799996 0.79400003 6.01900005
4.33799982 0.67400002 5.6789999
4.20800018 0.514 5.50899982
2.61800003 0.81400001 6.26900005
4.33799982 0.62400001 5.61899996
3.57800007 0.704 5.64900017
3.92799997 0.83399999 5.73899984
4.33799982 0.62400001 5.72900009
2.88800001 0.72399998 5.80900002
2.66799998 0.78399998 6.1789999
3.09800005 0.74400002 5.829
2.74799991 0.78399998 6.21899986
2.56800008 0.56400001 5.79899979
3.74799991 0.79400003 6.079
4.20800018 0.094 5.43900013
2.52800012 0.79400003 5.94899988
2.59800005 0.054 5.86899996
2.73799992 0.47400001 5.79899979
3.77800012 0.80400002 5.86899996
2.76799989 0.78399998 6.16900015
2.82800007 0.30399999 5.79899979
4.04799986 0.81400001 5.56899977
2.91799998 0.34400001 5.84899998
3.67799997 0.77399999 5.6789999
2.49799991 0.78399998 5.83900023
4.33799982 0.704 5.72900009
2.84800005 0.264 5.79899979
3.67799997 0.78399998 5.81899977
3.33800006 0.77399999 5.93900013
4.20800018 0.234 5.44899988
3.14800000 0.79400003 6.30900002
4.33799982 0.81400001 5.60900021
3.62800002 0.79400003 5.94899988
3.84800005 0.81400001 5.81899977
3.67799997 0.79400003 6.11899996
3.13800001 0.79400003 6.09899998
3.43799996 0.74400002 5.75899982
3.51799989 0.79400003 6.19899988
2.63800001 0.52399999 5.79899979
4.20800018 0.46399999 5.59899998
3.29800010 0.77399999 5.9289999
2.95799994 0.79400003 6.12900019
3.63800001 0.704 5.59899998
3.42799997 0.79400003 6.21899986
3.92799997 0.71399999 5.52899981
3.91799998 0.764 5.51900005
2.93799996 0.67400002 5.86899996
2.55800009 0.68400002 5.80900002
4.34800005 0.484 5.78900003
2.58800006 0.56400001 5.79899979
4.31799984 0.81400001 5.78900003
4.21799994 0.71399999 5.53900003
3.98799992 0.83399999 5.83900023
4.32800007 0.40400001 5.51900005
3.03800011 0.79400003 5.98899984
2.96799994 0.79400003 5.97900009
2.88800001 0.704 5.80900002
3.88800001 0.68400002 5.53900003
4.09800005 0.824 5.55900002
2.53800011 0.084 5.81899977
2.77800012 0.77399999 5.85900021
3.61800003 0.79400003 5.9289999
4.09800005 0.80400002 5.93900013
2.93799996 0.80400002 6.25899982
4.19799995 0.414 5.49900007
3.16799998 0.79400003 6.079
3.67799997 0.77399999 5.70900011
2.91799998 0.42399999 6.03900003
2.91799998 0.58399999 5.95900011
3.35800004 0.78399998 5.97900009
4.29799986 0.104 5.48899984
2.67799997 0.55400002 5.79899979
2.91799998 0.37400001 5.85900021
3.93799996 0.81400001 6.08900023
2.52800012 0.214 5.78900003
2.55800009 0.49399999 5.79899979
3.08800006 0.78399998 6.28900003
2.61800003 0.80400002 6.03900003
2.72799993 0.79400003 6.15899992
4.33799982 0.27399999 5.53900003
3.71799994 0.79400003 5.86899996
2.91799998 0.68400002 5.84899998
3.80800009 0.79400003 5.65899992
3.44799995 0.79400003 6.27899981
2.73799992 0.69400001 5.80900002
3.86800003 0.824 5.78900003
2.48799992 0.31400001 5.79899979
2.73799992 0.40400001 5.79899979
2.53800011 0.77399999 5.80900002
2.90799999 0.53399998 6.03900003
3.46799994 0.79400003 6.29899979
2.79800010 0.40400001 5.79899979
3.56800008 0.71399999 5.63899994
2.75799990 0.69400001 5.80900002
4.00799990 0.83399999 5.66900015
3.78800011 0.80400002 6.13899994
4.32800007 0.81400001 5.80900002
3.00799990 0.764 5.829
3.36800003 0.78399998 6.19899988
3.14800000 0.79400003 6.04899979
2.94799995 0.79400003 6.25899982
4.33799982 0.25400001 5.56899977
2.85800004 0.78399998 6.24900007
3.38800001 0.78399998 6.11899996
3.77800012 0.80400002 6.21899986
2.87800002 0.78399998 6.18900013
4.33799982 0.66399997 5.64900017
2.48799992 0.104 5.77899981
2.92799997 0.33399999 5.90899992
3.74799991 0.80400002 6.29899979
3.11800003 0.75400001 5.84899998
3.73799992 0.78399998 5.69899988
2.91799998 0.47400001 6.02899981
3.02800012 0.79400003 6.16900015
3.52800012 0.73400003 5.6789999
3.31800008 0.79400003 6.31899977
3.79800010 0.80400002 5.829
3.63800001 0.78399998 6.19899988
3.58800006 0.78399998 5.9289999
3.60800004 0.77399999 5.75899982
2.91799998 0.77399999 5.85900021
3.91799998 0.77399999 6.24900007
3.63800001 0.79400003 6.24900007
2.48799992 0.264 5.79899979
3.90799999 0.80400002 5.96899986
4.33799982 0.574 5.68900013
3.52800012 0.78399998 5.94899988
4.20800018 0.36399999 5.47900009
2.91799998 0.46399999 5.9289999
2.84800005 0.78399998 6.20900011
3.89800000 0.824 5.73899984
2.72799993 0.78399998 6.19899988
2.58800006 0.454 5.79899979
2.69799995 0.78399998 5.85900021
4.26800013 0.074 5.44899988
3.92799997 0.80400002 5.59899998
3.58800006 0.78399998 6.11899996
2.91799998 0.67400002 5.83900023
4.33799982 0.77399999 5.78900003
3.25799990 0.764 5.88899994
3.93799996 0.83399999 5.71899986
2.68799996 0.39399999 5.79899979
2.76799989 0.78399998 6.1789999
3.11800003 0.79400003 5.96899986
3.76799989 0.78399998 5.61899996
4.25799990 0.62400001 5.579
3.08800006 0.79400003 6.30900002
3.14800000 0.78399998 6.15899992
3.29800010 0.78399998 6.09899998
3.13800001 0.79400003 6.05900002
3.14800000 0.78399998 6.19899988
4.33799982 0.64399999 5.61899996
3.29800010 0.75400001 5.88899994
4.32800007 0.46399999 5.66900015
3.17799997 0.79400003 6.29899979
4.23799992 0.42399999 5.48899984
3.93799996 0.81400001 5.97900009
3.51799989 0.79400003 6.13899994
4.20800018 0.44400001 5.52899981
3.41799998 0.74400002 5.78900003
4.32800007 0.42399999 5.6789999
3.67799997 0.764 5.64900017
2.83800006 0.244 5.79899979
3.55800009 0.79400003 6.03900003
3.71799994 0.79400003 5.89900017
3.30800009 0.79400003 5.99900007
2.64800000 0.79400003 6.13899994
2.62800002 0.80400002 5.99900007
2.91799998 0.60399997 5.89900017
2.71799994 0.264 5.79899979
3.59800005 0.78399998 6.14900017
2.88800001 0.78399998 5.90899992
3.05800009 0.79400003 6.29899979
2.64800000 0.59399998 5.80900002
2.84800005 0.79400003 6.15899992
4.26800013 0.634 5.51900005
3.86800003 0.78399998 5.53900003
3.56800008 0.79400003 6.21899986
4.32800007 0.49399999 5.65899992
2.75799990 0.80400002 6.09899998
3.95799994 0.83399999 5.70900011
3.63800001 0.79400003 6.10900021
2.73799992 0.74400002 5.80900002
3.55800009 0.764 5.78900003
2.72799993 0.80400002 6.19899988
3.09800005 0.79400003 6.12900019
3.55800009 0.75400001 5.65899992
3.91799998 0.80400002 5.99900007
2.91799998 0.65399998 5.87900019
2.95799994 0.75400001 5.80900002
3.57800007 0.74400002 5.61899996
3.08800006 0.75400001 5.829
2.79800010 0.75400001 5.80900002
3.04800010 0.79400003 6.01900005
4.16800022 0.74400002 5.52899981
3.82800007 0.80400002 5.6789999
2.94799995 0.71399999 5.83900023
4.34800005 0.184 5.51900005
3.01799989 0.79400003 6.16900015
3.82800007 0.68400002 5.53900003
3.48799992 0.79400003 6.13899994
3.50799990 0.79400003 6.08900023
2.80800009 0.60399997 5.80900002
3.90799999 0.81400001 6.02899981
3.38800001 0.78399998 5.97900009
2.69799995 0.234 5.79899979
4.20800018 0.46399999 5.70900011
2.64800000 0.27399999 5.79899979
3.94799995 0.83399999 5.71899986
4.27799988 0.094 5.45900011
2.71799994 0.80400002 5.97900009
2.89800000 0.77399999 5.85900021
3.09800005 0.78399998 6.20900011
4.33799982 0.234 5.54899979
4.22800016 0.824 5.55900002
2.47799993 0.78399998 5.84899998
4.33799982 0.56400001 5.79899979
3.67799997 0.78399998 6.1789999
3.28800011 0.79400003 6.29899979
3.63800001 0.78399998 5.84899998
2.63800001 0.66399997 5.80900002
3.92799997 0.83399999 5.86899996
3.75799990 0.79400003 6.30900002
3.03800011 0.78399998 6.24900007
3.97799993 0.80400002 5.55900002
2.80800009 0.62400001 5.80900002
2.91799998 0.56400001 5.98899984
3.43799996 0.78399998 6.03900003
2.89800000 0.234 5.79899979
2.53800011 0.19400001 5.79899979
2.88800001 0.80400002 6.06899977
2.53800011 0.49399999 5.79899979
2.76799989 0.77399999 5.829
2.86800003 0.46399999 5.79899979
2.88800001 0.79400003 6.09899998
2.84800005 0.69400001 5.80900002
4.33799982 0.44400001 5.54899979
3.40799999 0.79400003 6.01900005
2.66799998 0.80400002 6.05900002
2.69799995 0.58399999 5.80900002
2.60800004 0.80400002 6.02899981
3.77800012 0.80400002 6.06899977
3.37800002 0.79400003 6.03900003
3.65799999 0.79400003 6.10900021
2.91799998 0.33399999 5.95900011
2.94799995 0.78399998 5.93900013
2.55800009 0.054 5.83900023
2.74799991 0.80400002 6.00899982
4.21799994 0.44400001 5.49900007
2.90799999 0.354 6.1789999
2.98799992 0.77399999 5.84899998
2.72799993 0.384 5.79899979
2.91799998 0.704 5.81899977
2.54800010 0.81400001 6.16900015
2.97799993 0.78399998 5.94899988
3.88800001 0.80400002 6.26900005
3.56800008 0.77399999 5.89900017
2.91799998 0.764 5.81899977
2.65799999 0.72399998 5.80900002
4.20800018 0.264 5.45900011
4.32800007 0.44400001 5.6789999
2.83800006 0.77399999 5.84899998
3.68799996 0.72399998 5.54899979
2.47799993 0.55400002 5.80900002
4.22800016 0.47400001 5.71899986
2.88800001 0.79400003 5.93900013
2.49799991 0.80400002 5.97900009
3.33800006 0.75400001 5.89900017
2.91799998 0.72399998 5.829
2.96799994 0.79400003 5.95900011
4.20800018 0.484 5.52899981
3.96799994 0.81400001 6.03900003
3.84800005 0.81400001 6.04899979
2.55800009 0.81400001 6.1789999
4.33799982 0.30399999 5.56899977
3.29800010 0.79400003 6.05900002
3.25799990 0.79400003 5.98899984
3.42799997 0.79400003 6.25899982
4.33799982 0.33399999 5.61899996
3.74799991 0.79400003 6.06899977
3.22799993 0.78399998 6.12900019
3.40799999 0.78399998 6.09899998
3.51799989 0.764 5.81899977
3.77800012 0.80400002 5.96899986
3.01799989 0.79400003 6.13899994
2.50799990 0.66399997 5.80900002
2.90799999 0.354 6.079
2.61800003 0.77399999 5.81899977
4.33799982 0.55400002 5.76900005
3.59800005 0.73400003 5.60900021
2.90799999 0.43399999 6.09899998
3.64800000 0.80400002 6.31899977
4.11800003 0.83399999 5.99900007
3.05800009 0.78399998 6.19899988
2.58800006 0.80400002 6.15899992
2.64800000 0.80400002 6.21899986
3.44799995 0.79400003 6.23899984
4.29799986 0.54400003 5.50899982
4.25799990 0.234 5.93900013
3.58800006 0.764 5.69899988
3.25799990 0.74400002 5.84899998
3.84800005 0.80400002 5.68900013
3.32800007 0.74400002 5.86899996
3.51799989 0.79400003 6.15899992
3.58800006 0.79400003 5.94899988
2.53800011 0.824 6.06899977
2.58800006 0.28400001 5.79899979
3.75799990 0.73400003 5.52899981
3.81800008 0.80400002 5.76900005
3.98799992 0.83399999 5.6789999
3.68799996 0.77399999 5.72900009
3.55800009 0.75400001 5.73899984
4.23799992 0.75400001 5.54899979
3.66799998 0.79400003 6.04899979
2.83800006 0.60399997 5.80900002
3.54800010 0.79400003 5.99900007
2.61800003 0.80400002 6.00899982
3.66799998 0.79400003 6.09899998
4.21799994 0.824 5.94899988
2.65799999 0.054 5.89900017
2.73799992 0.77399999 5.80900002
2.92799997 0.78399998 5.89900017
2.73799992 0.77399999 5.83900023
2.68799996 0.79400003 6.15899992
3.39800000 0.79400003 6.15899992
3.62800002 0.79400003 6.27899981
4.33799982 0.65399998 5.6789999
3.62800002 0.78399998 5.87900019
2.96799994 0.74400002 5.80900002
2.53800011 0.44400001 5.79899979
4.24800014 0.27399999 5.44899988
3.64800000 0.79400003 6.03900003
2.48799992 0.73400003 5.80900002
3.94799995 0.80400002 6.18900013
3.44799995 0.79400003 6.11899996
3.82800007 0.79400003 5.59899998
2.54800010 0.66399997 5.80900002
3.44799995 0.79400003 6.08900023
4.31799984 0.824 5.79899979
3.72799993 0.78399998 5.78900003
3.20799994 0.75400001 5.85900021
3.83800006 0.81400001 6.24900007
2.57800007 0.514 5.79899979
3.82800007 0.78399998 6.31899977
4.14799976 0.81400001 5.97900009
2.88800001 0.79400003 5.98899984
3.66799998 0.77399999 5.68900013
4.15799999 0.80400002 5.51900005
2.87800002 0.54400003 5.79899979
3.51799989 0.75400001 5.74900007
2.56800008 0.69400001 5.80900002
3.62800002 0.79400003 6.06899977
3.96799994 0.824 6.15899992
2.62800002 0.80400002 6.00899982
4.13800001 0.80400002 5.95900011
2.90799999 0.58399999 5.83900023
3.62800002 0.77399999 5.76900005
4.33799982 0.52399999 5.79899979
4.33799982 0.414 5.52899981
3.71799994 0.764 5.52899981
2.47799993 0.62400001 5.80900002
4.24800014 0.65399998 5.52899981
3.79800010 0.80400002 5.76900005
3.90799999 0.824 5.70900011
3.66799998 0.67400002 5.59899998
3.11800003 0.79400003 6.24900007
3.24799991 0.79400003 6.29899979
3.18799996 0.75400001 5.85900021
3.51799989 0.80400002 6.329
3.34800005 0.79400003 6.29899979
3.73799992 0.78399998 6.22900009
3.50799990 0.75400001 5.74900007
3.99799991 0.81400001 5.60900021
2.64800000 0.80400002 6.22900009
4.33799982 0.66399997 5.80900002
2.82800007 0.79400003 6.23899984
3.31800008 0.78399998 6.25899982
2.51799989 0.60399997 5.80900002
2.75799990 0.79400003 5.9289999
2.91799998 0.484 5.98899984
3.50799990 0.764 5.87900019
2.91799998 0.574 5.94899988
4.33799982 0.71399999 5.61899996
3.71799994 0.764 5.51900005
3.66799998 0.79400003 6.02899981
3.75799990 0.79400003 6.26900005
4.22800016 0.204 5.97900009
4.22800016 0.47400001 5.50899982
3.43799996 0.79400003 6.00899982
2.60800004 0.30399999 5.79899979
2.85800004 0.78399998 5.9289999
2.89800000 0.77399999 5.83900023
2.79800010 0.79400003 5.97900009
2.51799989 0.77399999 5.80900002
3.58800006 0.78399998 5.91900015
2.74799991 0.79400003 5.95900011
3.67799997 0.79400003 5.9289999
3.76799989 0.80400002 5.97900009
3.86800003 0.81400001 5.77899981
3.04800010 0.78399998 6.21899986
3.62800002 0.75400001 5.59899998
3.59800005 0.78399998 5.89900017
4.33799982 0.58399999 5.77899981
3.13800001 0.78399998 6.28900003
3.68799996 0.79400003 5.88899994
2.61800003 0.59399998 5.80900002
2.55800009 0.354 5.79899979
4.26800013 0.52399999 5.50899982
2.51799989 0.154 5.79899979
2.95799994 0.79400003 5.97900009
3.95799994 0.81400001 6.01900005
3.78800011 0.78399998 5.579
2.90799999 0.50400001 6.04899979
3.21799994 0.78399998 6.11899996
2.62800002 0.81400001 6.25899982
3.20799994 0.764 5.87900019
4.29799986 0.25400001 5.48899984
3.55800009 0.764 5.76900005
2.91799998 0.50400001 5.9289999
4.32800007 0.50400001 5.51900005
3.01799989 0.78399998 6.25899982
4.18800020 0.81400001 5.99900007
4.30800009 0.094 5.46899986
3.36800003 0.78399998 6.1789999
3.17799997 0.79400003 5.97900009
3.89800000 0.824 5.77899981
3.70799994 0.78399998 5.80900002
3.53800011 0.764 5.77899981
4.22800016 0.104 5.44899988
2.91799998 0.65399998 5.86899996
2.99799991 0.79400003 6.27899981
2.64800000 0.244 5.79899979
4.21799994 0.214 6.01900005
4.26800013 0.22400001 5.44899988
2.48799992 0.764 5.80900002
2.60800004 0.80400002 6.04899979
4.24800014 0.234 5.95900011
4.29799986 0.324 5.48899984
3.93799996 0.80400002 6.10900021
2.70799994 0.044 5.90899992
3.40799999 0.764 5.93900013
2.62800002 0.40400001 5.79899979
2.80800009 0.80400002 6.03900003
2.86800003 0.77399999 5.84899998
4.21799994 0.25400001 5.44899988
4.33799982 0.574 5.51900005
2.56800008 0.36399999 5.79899979
2.70799994 0.61400002 5.80900002
3.14800000 0.79400003 6.27899981
3.73799992 0.78399998 5.63899994
2.99799991 0.79400003 6.08900023
2.57800007 0.44400001 5.79899979
4.17799997 0.81400001 5.53900003
2.90799999 0.52399999 6.02899981
4.33799982 0.36399999 5.62900019
4.30800009 0.43399999 5.49900007
3.90799999 0.704 5.52899981
4.24800014 0.19400001 5.43900013
3.75799990 0.764 5.51900005
2.59800005 0.764 5.80900002
2.87800002 0.634 5.80900002
4.25799990 0.154 5.44899988
3.53800011 0.80400002 6.329
4.28800011 0.084 5.46899986
2.64800000 0.78399998 5.89900017
3.25799990 0.78399998 6.09899998
3.87800002 0.79400003 5.54899979
2.92799997 0.79400003 5.99900007
4.18800020 0.77399999 5.53900003
3.88800001 0.78399998 5.51900005
3.46799994 0.77399999 5.93900013
2.91799998 0.54400003 6.00899982
4.03800011 0.824 5.59899998
3.06800008 0.764 5.83900023
3.54800010 0.75400001 5.66900015
3.93799996 0.80400002 6.29899979
2.73799992 0.61400002 5.80900002
3.67799997 0.71399999 5.55900002
2.74799991 0.37400001 5.79899979
2.90799999 0.42399999 6.15899992
2.80800009 0.77399999 5.85900021
2.58800006 0.054 5.86899996
4.33799982 0.19400001 5.52899981
3.93799996 0.83399999 5.75899982
2.89800000 0.77399999 5.86899996
3.46799994 0.79400003 6.05900002
4.30800009 0.264 5.50899982
3.72799993 0.72399998 5.52899981
3.46799994 0.79400003 6.15899992
2.67799997 0.50400001 5.79899979
2.89800000 0.36399999 6.25899982
3.41799998 0.78399998 6.05900002
3.61800003 0.78399998 5.83900023
2.77800012 0.78399998 6.19899988
3.41799998 0.75400001 5.84899998
3.60800004 0.77399999 5.85900021
2.68799996 0.46399999 5.79899979
2.72799993 0.30399999 5.79899979
3.50799990 0.79400003 6.079
2.85800004 0.75400001 5.80900002
2.55800009 0.79400003 5.90899992
3.88800001 0.81400001 6.31899977
4.27799988 0.81400001 5.579
3.78800011 0.77399999 5.52899981
4.33799982 0.83399999 5.68900013
3.89800000 0.80400002 6.01900005
3.72799993 0.79400003 5.85900021
2.70799994 0.69400001 5.80900002
3.19799995 0.79400003 6.27899981
3.75799990 0.79400003 6.25899982
4.15799999 0.75400001 5.51900005
4.32800007 0.47400001 5.66900015
4.09800005 0.72399998 5.52899981
3.30800009 0.78399998 6.11899996
3.45799994 0.75400001 5.87900019
2.91799998 0.50400001 5.86899996
3.56800008 0.79400003 6.04899979
3.91799998 0.80400002 5.63899994
3.69799995 0.69400001 5.579
3.87800002 0.69400001 5.54899979
2.53800011 0.79400003 5.9289999
4.33799982 0.65399998 5.76900005
3.54800010 0.79400003 6.10900021
4.33799982 0.58399999 5.69899988
2.49799991 0.81400001 6.00899982
4.26800013 0.58399999 5.62900019
3.48799992 0.75400001 5.77899981
3.31800008 0.79400003 6.30900002
3.73799992 0.78399998 6.23899984
3.13800001 0.78399998 6.19899988
4.23799992 0.56400001 5.55900002
2.62800002 0.80400002 6.21899986
4.33799982 0.59399998 5.56899977
2.91799998 0.50400001 5.87900019
4.33799982 0.60399997 5.52899981
3.49799991 0.764 5.84899998
4.25799990 0.574 5.59899998
2.66799998 0.044 5.91900015
2.69799995 0.80400002 6.03900003
4.24800014 0.54400003 5.579
3.82800007 0.824 6.23899984
2.99799991 0.79400003 6.06899977
4.20800018 0.65399998 5.52899981
2.90799999 0.56400001 5.80900002
4.32800007 0.264 5.52899981
2.62800002 0.054 5.89900017
2.62800002 0.71399999 5.80900002
2.85800004 0.80400002 6.03900003
4.33799982 0.71399999 5.68900013
4.23799992 0.124 5.44899988
2.78800011 0.79400003 6.22900009
3.70799994 0.78399998 5.73899984
2.75799990 0.66399997 5.80900002
3.52800012 0.764 5.87900019
2.50799990 0.52399999 5.80900002
3.02800012 0.79400003 6.14900017
3.49799991 0.764 5.85900021
3.43799996 0.78399998 5.99900007
3.91799998 0.79400003 5.55900002
3.33800006 0.79400003 6.01900005
3.53800011 0.78399998 5.95900011
2.91799998 0.59399998 5.84899998
2.80800009 0.40400001 5.79899979
3.43799996 0.78399998 6.06899977
2.50799990 0.47400001 5.79899979
3.12800002 0.79400003 6.11899996
3.14800000 0.79400003 6.01900005
3.86800003 0.80400002 5.62900019
3.55800009 0.78399998 5.94899988
3.23799992 0.764 5.89900017
2.84800005 0.78399998 6.1789999
2.81800008 0.37400001 5.79899979
3.75799990 0.79400003 5.73899984
3.08800006 0.77399999 5.89900017
3.92799997 0.80400002 5.61899996
4.28800011 0.764 5.56899977
3.39800000 0.79400003 6.24900007
4.20800018 0.59399998 5.53900003
3.76799989 0.77399999 5.56899977
4.20800018 0.54400003 5.52899981
2.87800002 0.50400001 5.79899979
4.31799984 0.084 5.46899986
3.76799989 0.79400003 6.10900021
3.63800001 0.77399999 5.71899986
3.71799994 0.77399999 5.63899994
4.30800009 0.104 5.47900009
4.28800011 0.56400001 5.51900005
2.68799996 0.74400002 5.80900002
2.52800012 0.114 5.80900002
4.28800011 0.74400002 5.55900002
2.82800007 0.62400001 5.80900002
3.78800011 0.80400002 6.1789999
3.13800001 0.78399998 6.20900011
3.27800012 0.79400003 6.01900005
2.76799989 0.55400002 5.79899979
2.52800012 0.074 5.81899977
2.61800003 0.704 5.80900002
3.58800006 0.77399999 5.79899979
4.33799982 0.68400002 5.56899977
4.32800007 0.234 5.52899981
4.33799982 0.66399997 5.61899996
3.93799996 0.83399999 5.85900021
3.93799996 0.824 5.70900011
3.62800002 0.79400003 6.29899979
3.22799993 0.79400003 6.01900005
2.82800007 0.50400001 5.79899979
2.68799996 0.574 5.79899979
4.33799982 0.47400001 5.61899996
2.96799994 0.79400003 5.99900007
3.62800002 0.78399998 6.16900015
2.91799998 0.59399998 5.86899996
2.85800004 0.79400003 6.09899998
3.62800002 0.79400003 5.97900009
4.22800016 0.114 5.44899988
4.05800009 0.74400002 5.52899981
3.71799994 0.78399998 5.69899988
2.97799993 0.79400003 6.08900023
3.49799991 0.764 5.88899994
4.33799982 0.634 5.66900015
3.12800002 0.764 5.85900021
3.54800010 0.74400002 5.64900017
3.50799990 0.78399998 6.03900003
4.25799990 0.264 5.43900013
2.70799994 0.77399999 5.829
3.94799995 0.704 5.52899981
2.50799990 0.234 5.78900003
3.08800006 0.74400002 5.81899977
3.91799998 0.80400002 5.97900009
4.11800003 0.81400001 5.50899982
3.74799991 0.80400002 5.91900015
3.25799990 0.79400003 6.30900002
3.21799994 0.75400001 5.85900021
2.65799999 0.79400003 5.95900011
4.34800005 0.28400001 5.60900021
3.93799996 0.80400002 5.61899996
2.52800012 0.31400001 5.79899979
4.33799982 0.59399998 5.60900021
3.13800001 0.78399998 6.27899981
3.44799995 0.79400003 6.22900009
2.91799998 0.354 5.95900011
4.22800016 0.454 5.50899982
2.94799995 0.77399999 5.86899996
3.40799999 0.79400003 6.24900007
3.38800001 0.78399998 6.09899998
3.27800012 0.79400003 6.28900003
2.79800010 0.77399999 5.829
4.15799999 0.84399998 5.52899981
3.27800012 0.74400002 5.84899998
2.60800004 0.25400001 5.79899979
3.95799994 0.824 5.95900011
2.60800004 0.80400002 6.09899998
3.55800009 0.78399998 6.10900021
2.55800009 0.79400003 5.93900013
2.90799999 0.79400003 5.98899984
3.14800000 0.78399998 5.93900013
2.63800001 0.79400003 5.96899986
2.64800000 0.78399998 5.88899994
3.46799994 0.67400002 5.76900005
2.50799990 0.78399998 5.85900021
2.77800012 0.28400001 5.79899979
3.28800011 0.79400003 6.329
2.77800012 0.79400003 6.14900017
3.63800001 0.79400003 5.91900015
3.00799990 0.74400002 5.81899977
3.76799989 0.80400002 5.94899988
2.75799990 0.54400003 5.79899979
2.69799995 0.79400003 6.13899994
3.85800004 0.78399998 5.54899979
3.24799991 0.79400003 6.28900003
4.33799982 0.49399999 5.579
3.17799997 0.78399998 5.95900011
2.61800003 0.79400003 6.14900017
2.69799995 0.634 5.80900002
4.33799982 0.34400001 5.52899981
3.78800011 0.704 5.52899981
3.26799989 0.79400003 6.28900003
3.61800003 0.77399999 5.829
4.27799988 0.30399999 5.46899986
2.70799994 0.78399998 6.18900013
4.32800007 0.52399999 5.62900019
3.22799993 0.78399998 6.16900015
3.68799996 0.80400002 5.96899986
3.66799998 0.78399998 5.84899998
3.93799996 0.69400001 5.55900002
4.32800007 0.53399998 5.66900015
4.25799990 0.44400001 5.48899984
2.49799991 0.79400003 5.93900013
4.22800016 0.28400001 5.44899988
2.90799999 0.40400001 6.16900015
2.55800009 0.80400002 6.04899979
2.69799995 0.79400003 5.94899988
2.53800011 0.81400001 6.01900005
2.51799989 0.764 5.80900002
3.00799990 0.79400003 5.97900009
2.67799997 0.80400002 6.02899981
3.78800011 0.79400003 6.24900007
2.67799997 0.79400003 5.91900015
3.65799999 0.78399998 6.16900015
4.21799994 0.46399999 5.71899986
4.30800009 0.704 5.54899979
2.49799991 0.79400003 5.9289999
3.15799999 0.764 5.86899996
3.45799994 0.78399998 6.00899982
3.53800011 0.75400001 5.75899982
3.41799998 0.74400002 5.829
2.89800000 0.71399999 5.80900002
2.67799997 0.294 5.79899979
3.09800005 0.79400003 6.09899998
3.73799992 0.78399998 5.71899986
4.08799982 0.83399999 5.579
3.64800000 0.78399998 5.86899996
2.53800011 0.054 5.829
2.94799995 0.79400003 5.96899986
4.08799982 0.704 5.52899981
3.02800012 0.79400003 6.08900023
4.24800014 0.83399999 5.56899977
4.34800005 0.71399999 5.69899988
2.62800002 0.77399999 5.829
3.94799995 0.81400001 5.97900009
3.15799999 0.79400003 6.11899996
2.72799993 0.78399998 6.21899986
2.73799992 0.80400002 6.02899981
3.27800012 0.79400003 6.23899984
2.90799999 0.53399998 5.83900023
3.96799994 0.81400001 6.00899982
4.23799992 0.514 5.50899982
2.90799999 0.37400001 6.15899992
3.71799994 0.80400002 5.96899986
2.99799991 0.75400001 5.81899977
3.00799990 0.79400003 6.13899994
3.05800009 0.78399998 6.28900003
3.63800001 0.764 5.68900013
2.91799998 0.574 5.97900009
3.59800005 0.75400001 5.64900017
3.81800008 0.77399999 5.51900005
3.97799993 0.69400001 5.54899979
3.80800009 0.81400001 5.83900023
3.86800003 0.80400002 5.98899984
2.79800010 0.78399998 6.22900009
4.19799995 0.49399999 5.52899981
3.50799990 0.79400003 6.1789999
3.99799991 0.824 5.65899992
2.62800002 0.36399999 5.79899979
2.49799991 0.64399999 5.80900002
3.72799993 0.704 5.55900002
4.04799986 0.81400001 5.579
2.86800003 0.25400001 5.79899979
4.20800018 0.17399999 5.99900007
4.33799982 0.39399999 5.54899979
4.01800013 0.824 5.64900017
3.14800000 0.79400003 6.28900003
4.33799982 0.64399999 5.52899981
3.43799996 0.704 5.77899981
2.92799997 0.354 5.86899996
2.51799989 0.17399999 5.78900003
3.23799992 0.79400003 6.05900002
2.56800008 0.46399999 5.79899979
2.58800006 0.80400002 6.13899994
4.12799978 0.72399998 5.52899981
2.91799998 0.62400001 5.9289999
3.44799995 0.78399998 6.079
2.62800002 0.54400003 5.79899979
3.81800008 0.81400001 6.23899984
2.81800008 0.574 5.79899979
3.71799994 0.80400002 5.99900007
2.74799991 0.79400003 6.10900021
3.92799997 0.81400001 6.03900003
4.22800016 0.30399999 5.45900011
2.60800004 0.78399998 5.86899996
3.94799995 0.80400002 6.13899994
2.87800002 0.78399998 5.90899992
2.57800007 0.43399999 5.79899979
4.21799994 0.67400002 5.53900003
2.91799998 0.71399999 5.83900023
3.76799989 0.75400001 5.51900005
4.01800013 0.79400003 5.51900005
3.79800010 0.80400002 6.10900021
2.72799993 0.80400002 6.09899998
2.94799995 0.79400003 5.99900007
3.79800010 0.77399999 5.53900003
2.59800005 0.044 5.91900015
4.07800007 0.71399999 5.52899981
2.53800011 0.104 5.81899977
2.74799991 0.80400002 6.079
4.34800005 0.71399999 5.75899982
4.20800018 0.454 5.72900009
2.59800005 0.234 5.79899979
3.62800002 0.79400003 6.09899998
4.09800005 0.80400002 5.51900005
2.89800000 0.764 5.829
3.56800008 0.75400001 5.63899994
4.34800005 0.634 5.81899977
4.15799999 0.71399999 5.52899981
4.33799982 0.55400002 5.80900002
4.33799982 0.59399998 5.68900013
4.29799986 0.52399999 5.49900007
3.84800005 0.79400003 5.62900019
2.50799990 0.59399998 5.80900002
3.08800006 0.78399998 5.91900015
3.51799989 0.75400001 5.70900011
2.77800012 0.80400002 6.01900005
4.27799988 0.50400001 5.49900007
3.71799994 0.79400003 6.09899998
3.62800002 0.79400003 5.98899984
4.33799982 0.54400003 5.77899981
3.10800004 0.78399998 6.23899984
3.75799990 0.79400003 6.19899988
4.33799982 0.50400001 5.59899998
3.72799993 0.80400002 5.98899984
3.21799994 0.78399998 6.18900013
3.57800007 0.764 5.71899986
4.34800005 0.414 5.71899986
2.91799998 0.61400002 5.89900017
2.49799991 0.514 5.80900002
3.65799999 0.79400003 6.26900005
2.83800006 0.78399998 5.87900019
3.08800006 0.764 5.84899998
4.25799990 0.22400001 5.43900013
2.75799990 0.42399999 5.79899979
2.53800011 0.094 5.81899977
3.54800010 0.75400001 5.69899988
4.26800013 0.134 5.44899988
3.67799997 0.75400001 5.51900005
4.30800009 0.824 5.78900003
3.57800007 0.77399999 5.86899996
4.31799984 0.294 5.51900005
2.54800010 0.81400001 6.14900017
2.56800008 0.064 5.83900023
2.80800009 0.384 5.79899979
3.59800005 0.75400001 5.61899996
3.41799998 0.75400001 5.89900017
3.66799998 0.73400003 5.54899979
4.29799986 0.17399999 5.48899984
4.32800007 0.43399999 5.51900005
2.90799999 0.43399999 6.16900015
2.79800010 0.78399998 6.1789999
3.38800001 0.74400002 5.83900023
3.75799990 0.79400003 5.77899981
3.83800006 0.81400001 5.80900002
2.75799990 0.34400001 5.79899979
3.97799993 0.824 6.12900019
3.52800012 0.78399998 6.03900003
3.94799995 0.74400002 5.52899981
3.02800012 0.72399998 5.80900002
2.51799989 0.514 5.80900002
2.66799998 0.78399998 6.18900013
3.52800012 0.79400003 5.99900007
2.75799990 0.77399999 5.85900021
2.91799998 0.40400001 6.01900005
2.85800004 0.42399999 5.79899979
2.86800003 0.80400002 6.01900005
2.47799993 0.78399998 5.83900023
2.91799998 0.50400001 5.99900007
3.71799994 0.79400003 6.26900005
4.21799994 0.66399997 5.52899981
4.00799990 0.80400002 5.51900005
3.88800001 0.69400001 5.53900003
2.51799989 0.52399999 5.79899979
3.38800001 0.78399998 5.96899986
2.54800010 0.50400001 5.79899979
3.50799990 0.71399999 5.70900011
2.88800001 0.79400003 6.079
3.44799995 0.79400003 6.18900013
2.76799989 0.60399997 5.80900002
3.37800002 0.74400002 5.829
4.31799984 0.55400002 5.50899982
4.05800009 0.704 5.52899981
3.85800004 0.78399998 5.51900005
4.33799982 0.324 5.56899977
4.08799982 0.84399998 5.61899996
3.99799991 0.80400002 5.579
3.70799994 0.73400003 5.52899981
3.05800009 0.79400003 6.10900021
3.61800003 0.78399998 6.12900019
3.51799989 0.75400001 5.77899981
2.91799998 0.62400001 5.83900023
2.51799989 0.14399999 5.78900003
2.64800000 0.294 5.79899979
3.63800001 0.78399998 6.13899994
2.92799997 0.764 5.829
3.40799999 0.704 5.80900002
3.34800005 0.78399998 6.15899992
3.13800001 0.79400003 6.11899996
3.18799996 0.79400003 6.06899977
4.32800007 0.36399999 5.6789999
2.73799992 0.44400001 5.79899979
3.50799990 0.79400003 6.01900005
3.84800005 0.80400002 5.6789999
2.84800005 0.67400002 5.80900002
4.27799988 0.62400001 5.51900005
4.24800014 0.74400002 5.55900002
3.59800005 0.79400003 6.27899981
2.90799999 0.384 6.15899992
2.81800008 0.71399999 5.80900002
3.87800002 0.79400003 5.60900021
4.33799982 0.43399999 5.58900023
2.59800005 0.78399998 5.84899998
2.98799992 0.78399998 6.27899981
4.33799982 0.324 5.64900017
3.49799991 0.79400003 6.00899982
2.88800001 0.77399999 5.86899996
3.94799995 0.824 5.79899979
2.89800000 0.39399999 6.19899988
2.75799990 0.79400003 5.94899988
2.55800009 0.71399999 5.80900002
3.63800001 0.78399998 6.15899992
2.92799997 0.78399998 6.20900011
3.91799998 0.80400002 5.94899988
3.54800010 0.79400003 6.04899979
3.82800007 0.80400002 5.75899982
3.96799994 0.79400003 5.51900005
4.32800007 0.214 5.52899981
3.51799989 0.73400003 5.6789999
2.87800002 0.78399998 5.9289999
2.70799994 0.44400001 5.79899979
3.66799998 0.79400003 5.99900007
3.52800012 0.75400001 5.74900007
4.00799990 0.83399999 5.83900023
2.57800007 0.68400002 5.80900002
2.55800009 0.59399998 5.80900002
3.65799999 0.77399999 5.69899988
4.34800005 0.73400003 5.58900023
4.25799990 0.74400002 5.55900002
2.90799999 0.39399999 5.829
4.33799982 0.46399999 5.53900003
3.57800007 0.78399998 6.12900019
2.79800010 0.79400003 6.14900017
3.92799997 0.79400003 6.26900005
2.63800001 0.414 5.79899979
3.26799989 0.79400003 6.079
2.94799995 0.78399998 6.24900007
2.90799999 0.34400001 6.13899994
3.15799999 0.79400003 6.29899979
4.27799988 0.154 5.46899986
2.72799993 0.044 5.9289999
3.96799994 0.83399999 5.81899977
2.90799999 0.59399998 5.83900023
2.90799999 0.384 5.83900023
3.56800008 0.77399999 5.829
3.21799994 0.79400003 6.04899979
2.54800010 0.52399999 5.79899979
2.76799989 0.78399998 6.18900013
3.50799990 0.75400001 5.72900009
3.38800001 0.79400003 6.21899986
2.52800012 0.484 5.79899979
2.89800000 0.414 6.1789999
2.76799989 0.764 5.80900002
2.91799998 0.36399999 5.96899986
3.24799991 0.78399998 6.15899992
2.91799998 0.47400001 5.94899988
2.67799997 0.80400002 5.97900009
2.67799997 0.764 5.80900002
2.69799995 0.46399999 5.79899979
2.82800007 0.80400002 6.04899979
3.49799991 0.79400003 6.14900017
3.22799993 0.79400003 5.98899984
2.58800006 0.80400002 6.05900002
2.98799992 0.77399999 5.88899994
2.91799998 0.73400003 5.829
3.51799989 0.71399999 5.69899988
3.58800006 0.79400003 6.05900002
2.52800012 0.66399997 5.80900002
3.25799990 0.79400003 6.08900023
4.32800007 0.44400001 5.68900013
3.75799990 0.80400002 6.31899977
2.77800012 0.79400003 5.94899988
3.71799994 0.78399998 5.73899984
3.54800010 0.79400003 6.20900011
2.64800000 0.044 5.91900015
4.33799982 0.83399999 5.829
4.19799995 0.47400001 5.64900017
3.92799997 0.81400001 5.65899992
3.58800006 0.764 5.76900005
3.72799993 0.77399999 5.61899996
4.23799992 0.384 5.47900009
4.26800013 0.124 5.44899988
2.87800002 0.80400002 6.079
3.46799994 0.78399998 6.03900003
3.78800011 0.80400002 6.08900023
3.51799989 0.78399998 5.96899986
4.20800018 0.54400003 5.51900005
2.90799999 0.484 5.83900023
2.55800009 0.764 5.80900002
3.39800000 0.78399998 6.13899994
4.21799994 0.17399999 5.99900007
3.75799990 0.80400002 6.02899981
3.66799998 0.80400002 6.329
2.74799991 0.62400001 5.80900002
3.23799992 0.75400001 5.87900019
2.90799999 0.42399999 5.83900023
3.74799991 0.79400003 6.08900023
4.23799992 0.764 5.54899979
4.33799982 0.52399999 5.56899977
2.52800012 0.204 5.78900003
4.33799982 0.27399999 5.60900021
2.59800005 0.354 5.79899979
3.51799989 0.78399998 6.06899977
3.72799993 0.80400002 5.96899986
2.90799999 0.79400003 5.99900007
2.93799996 0.79400003 5.94899988
3.57800007 0.79400003 6.1789999
3.48799992 0.75400001 5.80900002
2.82800007 0.80400002 6.08900023
4.20800018 0.124 5.44899988
2.68799996 0.704 5.80900002
3.28800011 0.78399998 5.95900011
2.92799997 0.764 5.80900002
2.67799997 0.36399999 5.79899979
2.76799989 0.80400002 6.04899979
4.23799992 0.264 5.99900007
3.81800008 0.80400002 5.77899981
2.84800005 0.77399999 5.86899996
2.83800006 0.55400002 5.79899979
2.73799992 0.54400003 5.79899979
4.34800005 0.72399998 5.70900011
4.28800011 0.064 5.46899986
4.06799984 0.79400003 5.51900005
3.80800009 0.81400001 6.03900003
3.18799996 0.764 5.86899996
2.63800001 0.354 5.79899979
4.33799982 0.64399999 5.64900017
3.37800002 0.78399998 6.1789999
4.32800007 0.47400001 5.65899992
4.31799984 0.84399998 5.79899979
3.97799993 0.80400002 5.53900003
2.54800010 0.484 5.79899979
3.89800000 0.81400001 6.02899981
3.73799992 0.77399999 5.58900023
3.88800001 0.79400003 6.27899981
2.89800000 0.47400001 5.79899979
4.33799982 0.46399999 5.54899979
3.14800000 0.78399998 6.21899986
2.81800008 0.33399999 5.79899979
2.90799999 0.77399999 5.87900019
2.89800000 0.78399998 6.25899982
3.89800000 0.80400002 6.00899982
2.91799998 0.384 6.01900005
3.46799994 0.78399998 6.01900005
3.08800006 0.78399998 6.20900011
3.84800005 0.81400001 5.75899982
3.80800009 0.80400002 6.00899982
2.89800000 0.77399999 5.87900019
4.10799980 0.824 5.56899977
4.33799982 0.54400003 5.54899979
3.78800011 0.764 5.51900005
2.62800002 0.044 5.91900015
3.60800004 0.79400003 6.20900011
4.00799990 0.81400001 5.61899996
4.33799982 0.68400002 5.60900021
4.33799982 0.384 5.52899981
3.12800002 0.78399998 5.95900011
2.77800012 0.72399998 5.80900002
2.78800011 0.77399999 5.86899996
3.12800002 0.79400003 6.30900002
3.79800010 0.67400002 5.50899982
4.22800016 0.514 5.58900023
2.79800010 0.36399999 5.79899979
3.57800007 0.77399999 5.88899994
3.16799998 0.764 5.85900021
3.16799998 0.79400003 6.30900002
3.81800008 0.78399998 5.579
3.92799997 0.81400001 6.00899982
2.57800007 0.574 5.80900002
3.77800012 0.79400003 5.6789999
4.25799990 0.824 5.579
2.50799990 0.244 5.79899979
3.77800012 0.80400002 6.00899982
2.62800002 0.264 5.79899979
4.21799994 0.484 5.58900023
3.76799989 0.78399998 5.66900015
3.10800004 0.79400003 6.01900005
2.93799996 0.79400003 6.06899977
3.88800001 0.824 5.74900007
4.22800016 0.704 5.52899981
3.78800011 0.78399998 5.59899998
3.67799997 0.79400003 6.24900007
3.48799992 0.79400003 6.10900021
2.89800000 0.65399998 5.80900002
4.20800018 0.454 5.53900003
3.03800011 0.79400003 6.06899977
2.91799998 0.354 5.85900021
3.34800005 0.79400003 6.24900007
2.59800005 0.40400001 5.79899979
2.68799996 0.34400001 5.79899979
3.52800012 0.69400001 5.69899988
3.92799997 0.824 5.75899982
4.33799982 0.414 5.56899977
4.26800013 0.164 5.44899988
2.57800007 0.80400002 6.13899994
2.67799997 0.80400002 6.09899998
4.33799982 0.65399998 5.72900009
2.81800008 0.25400001 5.79899979
3.89800000 0.77399999 6.28900003
2.79800010 0.78399998 5.89900017
3.88800001 0.79400003 5.93900013
2.61800003 0.31400001 5.79899979
2.86800003 0.71399999 5.80900002
2.91799998 0.574 5.85900021
4.33799982 0.55400002 5.59899998
3.33800006 0.78399998 6.05900002
3.59800005 0.78399998 5.93900013
3.46799994 0.79400003 6.18900013
2.71799994 0.80400002 6.09899998
2.96799994 0.79400003 5.94899988
3.28800011 0.78399998 6.08900023
2.55800009 0.64399999 5.80900002
4.32800007 0.49399999 5.73899984
3.30800009 0.75400001 5.87900019
2.54800010 0.78399998 5.86899996
3.58800006 0.75400001 5.60900021
3.75799990 0.80400002 5.97900009
3.91799998 0.824 5.73899984
2.62800002 0.33399999 5.79899979
3.49799991 0.764 5.86899996
2.91799998 0.64399999 5.86899996
2.56800008 0.264 5.79899979
3.86800003 0.79400003 5.95900011
3.54800010 0.79400003 6.13899994
2.78800011 0.27399999 5.79899979
3.37800002 0.78399998 6.13899994
2.86800003 0.78399998 6.16900015
3.89800000 0.79400003 5.54899979
3.97799993 0.83399999 5.83900023
2.64800000 0.77399999 5.83900023
2.73799992 0.80400002 5.98899984
2.52800012 0.14399999 5.79899979
3.68799996 0.80400002 5.93900013
4.34800005 0.73400003 5.71899986
2.77800012 0.77399999 5.829
2.60800004 0.55400002 5.79899979
3.39800000 0.78399998 6.10900021
2.84800005 0.354 5.79899979
2.83800006 0.80400002 6.04899979
3.99799991 0.83399999 5.79899979
3.32800007 0.78399998 6.11899996
4.33799982 0.79400003 5.75899982
3.24799991 0.79400003 6.04899979
4.27799988 0.73400003 5.55900002
3.78800011 0.67400002 5.52899981
2.86800003 0.43399999 5.79899979
3.02800012 0.79400003 6.27899981
3.08800006 0.79400003 6.00899982
4.33799982 0.514 5.60900021
2.91799998 0.34400001 5.94899988
3.73799992 0.80400002 6.30900002
3.90799999 0.80400002 5.98899984
2.79800010 0.78399998 6.20900011
4.14799976 0.824 5.9289999
3.62800002 0.79400003 6.01900005
3.92799997 0.79400003 6.22900009
3.61800003 0.77399999 5.78900003
2.82800007 0.79400003 6.14900017
4.16800022 0.704 5.52899981
3.13800001 0.79400003 6.00899982
3.57800007 0.704 5.63899994
3.29800010 0.78399998 6.12900019
3.61800003 0.78399998 5.87900019
4.33799982 0.66399997 5.58900023
3.63800001 0.704 5.58900023
3.97799993 0.84399998 5.73899984
3.37800002 0.75400001 5.90899992
4.03800011 0.824 5.60900021
4.18800020 0.73400003 5.52899981
2.71799994 0.384 5.79899979
2.84800005 0.56400001 5.79899979
4.24800014 0.074 5.44899988
3.83800006 0.80400002 5.99900007
2.55800009 0.39399999 5.79899979
4.29799986 0.154 5.48899984
2.89800000 0.37400001 6.22900009
4.11800003 0.78399998 5.51900005
3.05800009 0.78399998 6.25899982
4.34800005 0.72399998 5.6789999
3.77800012 0.79400003 5.66900015
2.48799992 0.084 5.78900003
3.70799994 0.80400002 5.9289999
4.30800009 0.514 5.49900007
3.97799993 0.824 5.64900017
2.92799997 0.484 5.90899992
2.47799993 0.384 5.79899979
2.63800001 0.33399999 5.79899979
2.47799993 0.60399997 5.80900002
3.24799991 0.74400002 5.83900023
3.50799990 0.79400003 6.21899986
3.86800003 0.79400003 5.97900009
2.87800002 0.78399998 6.22900009
3.10800004 0.79400003 6.00899982
3.65799999 0.78399998 5.79899979
3.08800006 0.78399998 6.24900007
3.93799996 0.83399999 5.72900009
2.83800006 0.80400002 6.06899977
2.56800008 0.81400001 6.02899981
2.90799999 0.55400002 5.829
3.56800008 0.73400003 5.63899994
4.33799982 0.71399999 5.6789999
3.09800005 0.78399998 5.91900015
2.66799998 0.55400002 5.79899979
2.97799993 0.80400002 6.02899981
2.73799992 0.80400002 6.09899998
3.68799996 0.69400001 5.579
4.21799994 0.49399999 5.66900015
4.26800013 0.37400001 5.45900011
4.30800009 0.68400002 5.52899981
3.04800010 0.79400003 6.02899981
4.27799988 0.36399999 5.46899986
4.20800018 0.47400001 5.58900023
4.31799984 0.064 5.44899988
3.03800011 0.79400003 6.13899994
3.67799997 0.72399998 5.54899979
3.37800002 0.79400003 6.27899981
3.07800007 0.77399999 5.90899992
4.21799994 0.154 5.98899984
2.91799998 0.49399999 6.00899982
3.50799990 0.79400003 6.12900019
