# .PCD v0.7 - Point Cloud Data file format
VERSION 0.7
FIELDS x y z
SIZE 4 4 4
TYPE F F F
COUNT 1 1 1
WIDTH 1449
HEIGHT 1
VIEWPOINT 0 0 0 1 0 0 0
POINTS 1449
DATA ascii
3.06800008 0.79400003 3.55900002
3.99799991 0.634 3.77900004
3.80800009 0.704 3.73900008
3.32800007 0.79400003 3.56900001
3.52800012 0.79400003 3.44899988
3.92799997 0.43399999 3.77900004
4.07800007 0.44400001 3.76900005
3.60800004 0.78399998 3.61899996
3.52800012 0.77399999 3.63899994
2.76799989 0.80400002 3.64899993
2.77800012 0.79400003 3.87899995
4.34800005 0.75400001 3.43899989
2.88800001 0.79400003 3.45900011
2.55800009 0.264 3.95900011
4.03800011 0.36399999 3.75900006
4.17799997 0.50400001 3.77900004
4.31799984 0.73400003 3.65899992
2.99799991 0.77399999 3.86899996
3.33800006 0.79400003 3.41899991
3.50799990 0.79400003 3.41899991
2.78800011 0.79400003 3.88899994
4.13800001 0.62400001 3.77900004
3.99799991 0.384 3.76900005
3.01799989 0.764 4.00899982
3.36800003 0.73400003 3.829
4.06799984 0.54400003 3.76900005
3.42799997 0.79400003 3.35899997
3.18799996 0.77399999 3.84899998
2.56800008 0.27399999 4.01900005
4.07800007 0.55400002 3.76900005
4.30800009 0.74400002 3.64899993
3.29800010 0.80400002 3.30900002
3.06800008 0.79400003 3.48900008
3.02800012 0.78399998 3.78900003
4.16800022 0.294 3.75900006
2.54800010 0.80400002 3.829
3.49799991 0.74400002 3.73900008
4.01800013 0.62400001 3.77900004
3.54800010 0.78399998 3.59899998
3.16799998 0.79400003 3.68899989
2.74799991 0.81400001 3.6789999
2.59800005 0.77399999 3.99900007
4.00799990 0.81400001 3.70900011
3.44799995 0.73400003 3.78900003
3.18799996 0.75400001 3.98900008
3.90799999 0.75400001 3.77900004
2.99799991 0.79400003 3.73900008
2.54800010 0.80400002 3.97900009
4.02799988 0.454 3.75900006
3.16799998 0.764 3.90899992
3.19799995 0.78399998 3.74900007
2.55800009 0.324 3.89899993
4.13800001 0.67400002 3.77900004
2.84800005 0.79400003 3.40899992
3.88800001 0.58399999 3.72900009
4.03800011 0.55400002 3.76900005
3.43799996 0.73400003 3.77900004
2.91799998 0.79400003 3.48900008
3.86800003 0.80400002 3.56900001
3.24799991 0.79400003 3.31900001
3.89800000 0.50400001 3.74900007
3.53800011 0.79400003 3.44899988
2.56800008 0.52399999 3.99900007
2.54800010 0.81400001 3.86899996
3.08800006 0.79400003 3.49900007
3.27800012 0.764 3.75900006
3.02800012 0.77399999 3.89899993
4.14799976 0.34400001 3.75900006
3.00799990 0.79400003 3.74900007
4.12799978 0.44400001 3.76900005
2.62800002 0.044 3.74900007
2.94799995 0.77399999 3.90899992
3.13800001 0.764 3.94899988
2.70799994 0.81400001 3.60899997
3.99799991 0.49399999 3.76900005
2.79800010 0.79400003 3.47900009
2.59800005 0.81400001 3.64899993
3.35800004 0.79400003 3.4690001
4.12799978 0.514 3.76900005
2.93799996 0.79400003 3.579
2.81800008 0.79400003 3.4289999
3.04800010 0.764 3.9690001
4.37799978 0.79400003 3.29900002
2.66799998 0.79400003 3.85899997
3.54800010 0.75400001 3.7190001
2.53800011 0.71399999 4.05900002
3.33800006 0.78399998 3.61899996
3.17799997 0.75400001 3.97900009
3.07800007 0.79400003 3.69899988
4.09800005 0.514 3.76900005
2.56800008 0.36399999 3.99900007
3.85800004 0.78399998 3.72900009
3.98799992 0.42399999 3.76900005
3.45799994 0.77399999 3.59899998
2.53800011 0.384 4.06899977
4.14799976 0.36399999 3.75900006
2.76799989 0.77399999 4.00899982
2.55800009 0.80400002 3.89899993
2.84800005 0.79400003 3.35899997
3.02800012 0.764 3.9289999
3.04800010 0.79400003 3.49900007
2.53800011 0.37400001 4.06899977
2.73799992 0.79400003 3.97900009
2.67799997 0.81400001 3.75900006
3.16799998 0.79400003 3.34899998
2.55800009 0.074 4.02899981
3.00799990 0.77399999 3.93899989
4.05800009 0.78399998 3.77900004
3.31800008 0.79400003 3.55900002
4.34800005 0.77399999 3.43899989
3.04800010 0.78399998 3.81900001
3.83800006 0.764 3.78900003
2.89800000 0.78399998 3.86899996
3.69799995 0.79400003 3.47900009
3.08800006 0.74400002 4.02899981
3.05800009 0.79400003 3.65899992
2.99799991 0.80400002 3.34899998
4.30800009 0.69400001 3.78900003
2.79800010 0.79400003 3.54900002
3.34800005 0.79400003 3.33899999
3.09800005 0.79400003 3.73900008
3.54800010 0.75400001 3.68899989
2.55800009 0.294 3.89899993
3.17799997 0.77399999 3.78900003
3.78800011 0.79400003 3.54900002
4.03800011 0.484 3.76900005
2.97799993 0.78399998 3.829
2.55800009 0.78399998 3.829
3.10800004 0.764 3.94899988
3.93799996 0.30399999 3.76900005
2.58800006 0.79400003 3.90899992
3.90799999 0.78399998 3.7190001
3.32800007 0.78399998 3.60899997
3.55800009 0.79400003 3.41899991
3.12800002 0.80400002 3.34899998
4.34800005 0.80400002 3.37899995
4.02799988 0.56400001 3.76900005
3.46799994 0.79400003 3.41899991
2.52800012 0.81400001 3.83899999
3.60800004 0.79400003 3.48900008
3.14800000 0.75400001 3.97900009
3.90799999 0.43399999 3.77900004
3.15799999 0.79400003 3.66899991
3.64800000 0.79400003 3.47900009
3.47799993 0.79400003 3.50900006
3.88800001 0.77399999 3.77900004
2.56800008 0.54400003 4.00899982
3.83800006 0.81400001 3.45900011
4.17799997 0.60399997 3.77900004
3.84800005 0.79400003 3.60899997
4.02799988 0.47400001 3.75900006
2.59800005 0.81400001 3.68899989
2.54800010 0.324 3.88899994
2.97799993 0.79400003 3.66899991
4.02799988 0.414 3.75900006
2.58800006 0.81400001 3.6789999
2.88800001 0.78399998 3.95900011
2.55800009 0.17399999 4.03900003
2.56800008 0.50400001 3.93899989
2.58800006 0.71399999 4.04899979
3.45799994 0.79400003 3.329
3.16799998 0.79400003 3.59899998
4.00799990 0.42399999 3.76900005
2.65799999 0.79400003 3.94899988
3.08800006 0.73400003 4.03900003
2.57800007 0.114 3.75900006
2.54800010 0.80400002 3.68899989
2.80800009 0.78399998 3.98900008
3.47799993 0.79400003 3.40899992
3.62800002 0.79400003 3.44899988
3.98799992 0.56400001 3.76900005
3.04800010 0.79400003 3.52900004
3.58800006 0.78399998 3.61899996
2.54800010 0.28400001 3.86899996
3.47799993 0.78399998 3.579
2.55800009 0.79400003 3.75900006
3.02800012 0.74400002 4.04899979
3.34800005 0.79400003 3.53900003
3.22799993 0.81400001 3.30900002
3.48799992 0.79400003 3.47900009
2.55800009 0.064 4.04899979
2.56800008 0.40400001 4.01900005
3.40799999 0.79400003 3.34899998
3.46799994 0.79400003 3.4289999
3.58800006 0.80400002 3.35899997
3.89800000 0.81400001 3.51900005
4.21799994 0.80400002 3.27900004
2.98799992 0.80400002 3.34899998
3.56800008 0.77399999 3.63899994
3.44799995 0.73400003 3.80900002
3.06800008 0.79400003 3.51900005
3.32800007 0.77399999 3.65899992
2.56800008 0.54400003 3.99900007
2.86800003 0.79400003 3.69899988
3.61800003 0.79400003 3.48900008
2.57800007 0.81400001 3.6789999
3.37800002 0.75400001 3.72900009
3.76799989 0.78399998 3.68899989
2.58800006 0.054 3.85899997
3.56800008 0.74400002 3.75900006
3.30800009 0.75400001 3.79900002
3.77800012 0.80400002 3.4690001
3.96799994 0.294 3.76900005
2.70799994 0.81400001 3.74900007
4.18800020 0.384 3.76900005
4.32800007 0.72399998 3.47900009
3.07800007 0.81400001 3.35899997
3.90799999 0.72399998 3.77900004
2.55800009 0.80400002 3.69899988
3.22799993 0.77399999 3.78900003
3.02800012 0.79400003 3.75900006
3.60800004 0.704 3.78900003
4.01800013 0.64399999 3.77900004
2.88800001 0.78399998 3.40899992
2.64800000 0.79400003 3.89899993
3.83800006 0.80400002 3.50900006
2.75799990 0.79400003 3.88899994
3.28800011 0.79400003 3.4690001
2.87800002 0.77399999 3.98900008
2.55800009 0.69400001 4.05900002
2.57800007 0.73400003 4.03900003
3.16799998 0.79400003 3.50900006
4.12799978 0.71399999 3.77900004
2.79800010 0.79400003 3.85899997
3.94799995 0.80400002 3.69899988
3.65799999 0.81400001 3.34899998
3.12800002 0.80400002 3.51900005
2.54800010 0.414 4.06899977
2.87800002 0.79400003 3.59899998
3.46799994 0.764 3.64899993
3.32800007 0.75400001 3.75900006
3.55800009 0.78399998 3.61899996
4.04799986 0.354 3.75900006
3.04800010 0.764 3.97900009
3.03800011 0.79400003 3.60899997
2.90799999 0.79400003 3.65899992
2.95799994 0.79400003 3.74900007
2.55800009 0.094 3.9690001
3.60800004 0.79400003 3.60899997
4.29799986 0.64399999 3.78900003
3.61800003 0.704 3.78900003
2.98799992 0.79400003 3.51900005
3.71799994 0.81400001 3.37899995
3.24799991 0.79400003 3.4289999
2.56800008 0.634 4.04899979
3.36800003 0.79400003 3.4289999
3.27800012 0.74400002 3.91899991
3.18799996 0.79400003 3.60899997
3.63800001 0.75400001 3.72900009
3.04800010 0.79400003 3.43899989
3.31800008 0.79400003 3.58899999
2.52800012 0.80400002 3.93899989
3.23799992 0.77399999 3.7190001
2.53800011 0.72399998 4.04899979
2.56800008 0.384 4.04899979
3.62800002 0.79400003 3.48900008
2.96799994 0.79400003 3.61899996
2.91799998 0.79400003 3.79900002
3.17799997 0.764 3.9289999
3.09800005 0.81400001 3.33899999
3.85800004 0.81400001 3.50900006
3.94799995 0.80400002 3.68899989
4.15799999 0.43399999 3.76900005
3.40799999 0.78399998 3.59899998
3.74799991 0.79400003 3.52900004
2.55800009 0.164 3.97900009
3.88800001 0.81400001 3.51900005
3.61800003 0.79400003 3.4690001
2.54800010 0.084 4.079
3.41799998 0.73400003 3.85899997
2.92799997 0.79400003 3.75900006
2.56800008 0.33399999 3.99900007
2.55800009 0.80400002 3.95900011
2.89800000 0.79400003 3.56900001
4.34800005 0.77399999 3.4289999
2.96799994 0.79400003 3.39899993
3.91799998 0.65399998 3.77900004
4.09800005 0.53399998 3.76900005
2.94799995 0.79400003 3.49900007
3.40799999 0.72399998 3.83899999
3.44799995 0.764 3.64899993
2.54800010 0.164 3.93899989
3.72799993 0.78399998 3.69899988
3.36800003 0.79400003 3.56900001
2.84800005 0.79400003 3.51900005
2.93799996 0.74400002 4.04899979
3.56800008 0.72399998 3.81900001
2.55800009 0.43399999 3.91899991
2.82800007 0.79400003 3.41899991
3.59800005 0.79400003 3.4690001
3.09800005 0.79400003 3.72900009
3.00799990 0.77399999 3.91899991
2.56800008 0.53399998 4.03900003
2.56800008 0.064 3.9289999
2.91799998 0.824 3.44899988
3.38800001 0.79400003 3.35899997
2.52800012 0.42399999 4.06899977
2.91799998 0.824 3.47900009
3.19799995 0.764 3.88899994
2.55800009 0.134 4.05900002
2.76799989 0.73400003 4.03900003
3.00799990 0.78399998 3.77900004
2.59800005 0.064 3.74900007
3.28800011 0.78399998 3.31900001
3.65799999 0.80400002 3.4289999
4.18800020 0.72399998 3.78900003
2.55800009 0.094 4.05900002
3.94799995 0.30399999 3.76900005
3.81800008 0.75400001 3.77900004
3.99799991 0.64399999 3.77900004
2.55800009 0.134 3.90899992
3.81800008 0.71399999 3.73900008
3.87800002 0.69400001 3.73900008
3.30800009 0.74400002 3.90899992
2.55800009 0.204 3.97900009
2.56800008 0.58399999 3.97900009
2.97799993 0.78399998 3.85899997
4.00799990 0.68400002 3.77900004
4.05800009 0.61400002 3.77900004
3.18799996 0.79400003 3.55900002
3.12800002 0.80400002 3.49900007
2.55800009 0.294 3.97900009
4.26800013 0.65399998 3.78900003
3.18799996 0.764 3.9289999
2.76799989 0.78399998 3.97900009
3.66799998 0.77399999 3.70900011
3.69799995 0.80400002 3.43899989
3.83800006 0.824 3.41899991
3.81800008 0.78399998 3.66899991
2.96799994 0.77399999 3.87899995
3.17799997 0.79400003 3.45900011
4.19799995 0.79400003 3.76900005
3.38800001 0.79400003 3.36899996
3.89800000 0.514 3.76900005
3.70799994 0.78399998 3.61899996
2.62800002 0.79400003 3.97900009
2.55800009 0.22400001 3.93899989
4.19799995 0.80400002 3.25900006
3.17799997 0.79400003 3.40899992
3.88800001 0.79400003 3.66899991
3.16799998 0.79400003 3.40899992
2.70799994 0.81400001 3.579
2.74799991 0.81400001 3.579
2.68799996 0.79400003 3.86899996
4.18800020 0.43399999 3.76900005
3.68799996 0.74400002 3.79900002
3.68799996 0.77399999 3.68899989
3.59800005 0.79400003 3.47900009
2.56800008 0.114 3.87899995
2.96799994 0.79400003 3.74900007
3.57800007 0.78399998 3.60899997
2.55800009 0.214 3.95900011
3.52800012 0.79400003 3.35899997
3.12800002 0.80400002 3.4690001
3.76799989 0.78399998 3.65899992
3.32800007 0.79400003 3.53900003
3.54800010 0.79400003 3.4289999
4.31799984 0.73400003 3.72900009
3.54800010 0.79400003 3.34899998
3.65799999 0.79400003 3.43899989
2.55800009 0.79400003 3.79900002
3.49799991 0.764 3.63899994
4.08799982 0.66399997 3.77900004
3.01799989 0.79400003 3.44899988
2.89800000 0.824 3.4690001
3.16799998 0.78399998 3.77900004
4.05800009 0.514 3.76900005
3.12800002 0.75400001 3.9690001
4.32800007 0.79400003 3.50900006
4.05800009 0.54400003 3.76900005
2.86800003 0.79400003 3.77900004
3.28800011 0.79400003 3.59899998
3.40799999 0.79400003 3.44899988
3.59800005 0.73400003 3.77900004
2.79800010 0.79400003 3.90899992
3.81800008 0.78399998 3.7190001
2.90799999 0.79400003 3.52900004
3.52800012 0.79400003 3.579
4.19799995 0.47400001 3.77900004
3.18799996 0.79400003 3.59899998
3.48799992 0.74400002 3.73900008
3.11800003 0.80400002 3.53900003
3.64800000 0.78399998 3.61899996
2.77800012 0.80400002 3.65899992
2.82800007 0.79400003 3.65899992
3.76799989 0.79400003 3.579
2.56800008 0.80400002 3.89899993
2.66799998 0.79400003 3.98900008
4.02799988 0.69400001 3.77900004
3.47799993 0.79400003 3.36899996
4.05800009 0.50400001 3.76900005
3.90799999 0.49399999 3.77900004
3.39800000 0.79400003 3.39899993
4.06799984 0.67400002 3.77900004
2.66799998 0.80400002 3.89899993
3.88800001 0.66399997 3.73900008
3.06800008 0.74400002 4.02899981
3.37800002 0.74400002 3.75900006
2.55800009 0.164 3.84899998
3.93799996 0.50400001 3.77900004
2.80800009 0.78399998 3.9690001
2.77800012 0.80400002 3.59899998
3.87800002 0.81400001 3.51900005
3.71799994 0.75400001 3.79900002
3.43799996 0.77399999 3.62899995
4.24800014 0.64399999 3.78900003
3.41799998 0.72399998 3.80900002
3.77800012 0.78399998 3.60899997
3.04800010 0.79400003 3.50900006
3.05800009 0.79400003 3.44899988
3.85800004 0.80400002 3.54900002
2.54800010 0.354 4.06899977
3.78800011 0.81400001 3.44899988
3.51799989 0.79400003 3.54900002
4.22800016 0.65399998 3.78900003
3.08800006 0.80400002 3.45900011
2.82800007 0.78399998 3.99900007
2.54800010 0.40400001 3.86899996
3.99799991 0.59399998 3.76900005
4.11800003 0.71399999 3.77900004
3.13800001 0.75400001 4.01900005
3.15799999 0.75400001 3.95900011
2.87800002 0.824 3.48900008
3.52800012 0.75400001 3.70900011
4.09800005 0.67400002 3.77900004
3.37800002 0.79400003 3.48900008
4.29799986 0.80400002 3.56900001
3.26799989 0.74400002 3.95900011
3.11800003 0.80400002 3.4690001
3.25799990 0.764 3.80900002
2.58800006 0.80400002 3.95900011
2.83800006 0.78399998 3.93899989
2.52800012 0.234 4.06899977
3.28800011 0.77399999 3.70900011
3.57800007 0.79400003 3.43899989
3.95799994 0.50400001 3.76900005
2.82800007 0.79400003 3.49900007
4.05800009 0.764 3.77900004
2.63800001 0.824 3.70900011
3.13800001 0.78399998 3.77900004
3.58800006 0.79400003 3.38899994
2.75799990 0.79400003 3.81900001
3.47799993 0.81400001 3.31900001
2.64800000 0.80400002 3.829
3.89800000 0.39399999 3.64899993
2.83800006 0.79400003 3.65899992
2.87800002 0.79400003 3.56900001
2.55800009 0.67400002 4.05900002
2.80800009 0.79400003 3.78900003
3.39800000 0.78399998 3.579
2.56800008 0.49399999 3.9690001
3.30800009 0.75400001 3.75900006
2.56800008 0.204 4.04899979
3.88800001 0.80400002 3.62899995
3.93799996 0.46399999 3.77900004
3.01799989 0.78399998 3.77900004
3.74799991 0.79400003 3.56900001
2.80800009 0.79400003 3.61899996
2.55800009 0.71399999 4.05900002
3.91799998 0.81400001 3.56900001
3.40799999 0.79400003 3.40899992
3.17799997 0.77399999 3.83899999
4.27799988 0.764 3.77900004
2.77800012 0.79400003 3.49900007
2.97799993 0.79400003 3.59899998
4.25799990 0.62400001 3.78900003
3.09800005 0.77399999 3.87899995
3.14800000 0.75400001 4.02899981
2.85800004 0.79400003 3.78900003
2.95799994 0.78399998 3.79900002
3.17799997 0.79400003 3.38899994
3.41799998 0.73400003 3.78900003
3.13800001 0.79400003 3.63899994
3.96799994 0.49399999 3.76900005
2.81800008 0.73400003 4.04899979
2.93799996 0.77399999 3.94899988
3.55800009 0.79400003 3.48900008
2.88800001 0.79400003 3.80900002
3.86800003 0.66399997 3.72900009
3.48799992 0.79400003 3.329
4.16800022 0.81400001 3.75900006
3.07800007 0.77399999 3.829
2.59800005 0.054 3.79900002
2.66799998 0.81400001 3.75900006
3.42799997 0.764 3.6789999
3.20799994 0.75400001 3.91899991
2.74799991 0.79400003 3.85899997
3.31800008 0.79400003 3.43899989
3.92799997 0.81400001 3.58899999
4.29799986 0.74400002 3.58899999
2.64800000 0.80400002 3.91899991
2.53800011 0.114 4.06899977
3.00799990 0.77399999 3.90899992
4.34800005 0.77399999 3.44899988
2.60800004 0.79400003 3.86899996
2.66799998 0.79400003 3.94899988
3.96799994 0.55400002 3.76900005
2.59800005 0.73400003 4.03900003
3.54800010 0.74400002 3.72900009
2.88800001 0.80400002 3.35899997
2.56800008 0.484 4.02899981
3.04800010 0.80400002 3.34899998
2.94799995 0.79400003 3.6789999
2.71799994 0.81400001 3.60899997
4.10799980 0.61400002 3.77900004
3.48799992 0.79400003 3.4289999
4.07800007 0.46399999 3.76900005
2.90799999 0.79400003 3.51900005
3.98799992 0.69400001 3.77900004
3.11800003 0.81400001 3.37899995
4.15799999 0.54400003 3.77900004
3.90799999 0.80400002 3.65899992
3.44799995 0.75400001 3.70900011
3.34800005 0.81400001 3.30900002
3.55800009 0.79400003 3.44899988
2.95799994 0.79400003 3.44899988
4.04799986 0.704 3.77900004
2.55800009 0.104 3.97900009
3.09800005 0.77399999 3.86899996
2.56800008 0.79400003 3.97900009
3.87800002 0.81400001 3.38899994
2.55800009 0.134 3.97900009
3.73799992 0.78399998 3.63899994
2.55800009 0.184 4.03900003
2.93799996 0.79400003 3.76900005
3.58800006 0.79400003 3.58899999
2.60800004 0.79400003 3.90899992
2.90799999 0.78399998 3.829
4.18800020 0.71399999 3.78900003
3.71799994 0.75400001 3.77900004
2.55800009 0.36399999 3.9289999
3.73799992 0.79400003 3.55900002
3.08800006 0.79400003 3.51900005
2.95799994 0.79400003 3.55900002
3.37800002 0.73400003 3.84899998
4.09800005 0.47400001 3.76900005
2.74799991 0.80400002 3.59899998
2.77800012 0.80400002 3.579
2.56800008 0.50400001 4.02899981
3.94799995 0.81400001 3.59899998
3.15799999 0.79400003 3.39899993
3.29800010 0.78399998 3.34899998
3.28800011 0.74400002 3.91899991
3.85800004 0.77399999 3.76900005
3.26799989 0.79400003 3.43899989
4.33799982 0.75400001 3.4690001
3.48799992 0.73400003 3.79900002
2.56800008 0.384 4.03900003
2.81800008 0.764 4.01900005
3.26799989 0.75400001 3.81900001
3.58800006 0.73400003 3.77900004
2.55800009 0.164 3.829
3.51799989 0.74400002 3.73900008
3.87800002 0.78399998 3.72900009
2.98799992 0.74400002 4.03900003
3.05800009 0.79400003 3.59899998
2.85800004 0.79400003 3.77900004
2.65799999 0.79400003 3.97900009
4.21799994 0.71399999 3.78900003
3.99799991 0.72399998 3.77900004
3.53800011 0.79400003 3.579
2.63800001 0.80400002 3.93899989
4.30800009 0.75400001 3.72900009
2.56800008 0.234 4.04899979
3.25799990 0.79400003 3.41899991
2.97799993 0.79400003 3.44899988
2.64800000 0.80400002 3.83899999
2.93799996 0.78399998 3.83899999
3.67799997 0.79400003 3.50900006
3.01799989 0.78399998 3.78900003
3.12800002 0.77399999 3.81900001
3.96799994 0.414 3.76900005
3.15799999 0.79400003 3.50900006
2.87800002 0.79400003 3.63899994
3.83800006 0.73400003 3.75900006
2.96799994 0.77399999 3.91899991
3.64800000 0.77399999 3.6789999
3.47799993 0.79400003 3.48900008
3.21799994 0.78399998 3.37899995
4.06799984 0.61400002 3.77900004
3.69799995 0.77399999 3.7190001
3.89800000 0.65399998 3.74900007
3.91799998 0.80400002 3.62899995
3.88800001 0.81400001 3.55900002
2.55800009 0.184 3.93899989
3.01799989 0.79400003 3.56900001
3.86800003 0.78399998 3.74900007
3.94799995 0.33399999 3.76900005
4.34800005 0.69400001 3.44899988
3.09800005 0.77399999 3.84899998
2.93799996 0.78399998 3.80900002
3.99799991 0.31400001 3.75900006
2.69799995 0.73400003 4.03900003
2.56800008 0.114 3.83899999
3.49799991 0.77399999 3.61899996
3.20799994 0.78399998 3.7190001
3.63800001 0.74400002 3.76900005
2.68799996 0.824 3.579
3.18799996 0.79400003 3.40899992
3.36800003 0.73400003 3.85899997
3.96799994 0.42399999 3.76900005
3.58800006 0.72399998 3.80900002
3.20799994 0.77399999 3.80900002
2.78800011 0.80400002 3.69899988
2.92799997 0.79400003 3.47900009
3.96799994 0.72399998 3.77900004
3.23799992 0.79400003 3.30900002
3.22799993 0.79400003 3.43899989
3.46799994 0.75400001 3.68899989
3.06800008 0.79400003 3.7190001
3.69799995 0.78399998 3.68899989
3.31800008 0.79400003 3.56900001
3.19799995 0.75400001 3.9289999
3.59800005 0.79400003 3.579
4.09800005 0.634 3.77900004
2.54800010 0.78399998 3.99900007
3.35800004 0.75400001 3.76900005
2.90799999 0.79400003 3.43899989
3.63800001 0.764 3.72900009
4.11800003 0.75400001 3.77900004
3.03800011 0.81400001 3.36899996
2.52800012 0.79400003 3.74900007
2.96799994 0.81400001 3.41899991
2.60800004 0.824 3.64899993
2.79800010 0.79400003 3.43899989
2.88800001 0.79400003 3.51900005
2.71799994 0.79400003 3.87899995
4.25799990 0.61400002 3.78900003
4.00799990 0.72399998 3.77900004
2.85800004 0.79400003 3.56900001
4.29799986 0.764 3.74900007
2.70799994 0.824 3.61899996
3.47799993 0.79400003 3.44899988
4.26800013 0.79400003 3.72900009
2.56800008 0.28400001 4.00899982
3.08800006 0.75400001 4.01900005
2.52800012 0.054 4.06899977
3.97799993 0.30399999 3.76900005
3.22799993 0.79400003 3.64899993
4.17799997 0.514 3.77900004
2.78800011 0.79400003 3.90899992
2.57800007 0.81400001 3.66899991
3.23799992 0.78399998 3.36899996
3.72799993 0.79400003 3.53900003
3.24799991 0.75400001 3.91899991
2.82800007 0.79400003 3.70900011
3.65799999 0.77399999 3.68899989
2.55800009 0.264 3.99900007
3.89800000 0.414 3.63899994
4.11800003 0.54400003 3.77900004
3.44799995 0.79400003 3.38899994
2.53800011 0.72399998 4.03900003
3.42799997 0.73400003 3.80900002
2.57800007 0.074 3.83899999
3.89800000 0.43399999 3.65899992
2.60800004 0.044 3.81900001
3.72799993 0.80400002 3.44899988
3.06800008 0.79400003 3.4690001
3.53800011 0.79400003 3.33899999
2.94799995 0.79400003 3.78900003
2.57800007 0.72399998 4.05900002
3.24799991 0.79400003 3.55900002
3.54800010 0.764 3.65899992
2.68799996 0.81400001 3.59899998
3.08800006 0.78399998 3.76900005
3.49799991 0.79400003 3.40899992
4.23799992 0.61400002 3.78900003
3.34800005 0.79400003 3.44899988
3.08800006 0.73400003 4.05900002
3.64800000 0.71399999 3.78900003
3.15799999 0.80400002 3.51900005
3.15799999 0.79400003 3.64899993
2.56800008 0.39399999 4.04899979
3.32800007 0.74400002 3.81900001
3.87800002 0.78399998 3.74900007
2.99799991 0.79400003 3.56900001
2.91799998 0.79400003 3.73900008
3.80800009 0.72399998 3.75900006
3.11800003 0.78399998 3.75900006
3.44799995 0.75400001 3.69899988
3.22799993 0.79400003 3.54900002
3.08800006 0.78399998 3.79900002
3.75799990 0.77399999 3.72900009
2.60800004 0.80400002 3.97900009
2.94799995 0.79400003 3.73900008
3.16799998 0.79400003 3.58899999
3.14800000 0.80400002 3.49900007
3.45799994 0.764 3.63899994
3.89800000 0.47400001 3.76900005
2.98799992 0.79400003 3.75900006
2.85800004 0.79400003 3.83899999
2.80800009 0.79400003 3.54900002
2.73799992 0.80400002 3.579
2.84800005 0.77399999 3.99900007
2.93799996 0.78399998 3.86899996
4.36800003 0.69400001 3.43899989
3.42799997 0.75400001 3.72900009
2.56800008 0.34400001 3.99900007
4.29799986 0.75400001 3.75900006
4.16800022 0.47400001 3.76900005
3.79800010 0.79400003 3.53900003
3.26799989 0.764 3.73900008
3.30800009 0.79400003 3.50900006
2.70799994 0.81400001 3.70900011
3.96799994 0.43399999 3.76900005
3.02800012 0.79400003 3.74900007
3.33800006 0.79400003 3.44899988
2.56800008 0.354 3.97900009
3.71799994 0.79400003 3.49900007
2.90799999 0.79400003 3.58899999
3.01799989 0.79400003 3.69899988
2.94799995 0.79400003 3.69899988
3.87800002 0.77399999 3.77900004
4.04799986 0.59399998 3.77900004
3.93799996 0.49399999 3.77900004
3.18799996 0.78399998 3.34899998
4.01800013 0.36399999 3.76900005
2.97799993 0.79400003 3.48900008
3.72799993 0.71399999 3.76900005
3.87800002 0.574 3.70900011
4.22800016 0.454 3.77900004
2.57800007 0.80400002 3.75900006
3.52800012 0.72399998 3.80900002
2.53800011 0.14399999 4.06899977
4.24800014 0.80400002 3.73900008
3.95799994 0.79400003 3.72900009
3.76799989 0.75400001 3.78900003
3.34800005 0.75400001 3.7190001
3.53800011 0.71399999 3.829
3.91799998 0.71399999 3.77900004
4.30800009 0.79400003 3.53900003
2.56800008 0.50400001 3.97900009
2.89800000 0.78399998 3.91899991
2.54800010 0.33399999 3.88899994
2.72799993 0.764 4.00899982
2.59800005 0.74400002 4.02899981
3.73799992 0.80400002 3.48900008
3.35800004 0.81400001 3.30900002
2.92799997 0.79400003 3.37899995
3.88800001 0.40400001 3.6789999
4.14799976 0.764 3.77900004
2.68799996 0.80400002 3.829
3.26799989 0.79400003 3.51900005
3.03800011 0.79400003 3.74900007
2.57800007 0.094 3.80900002
3.13800001 0.79400003 3.58899999
3.17799997 0.764 3.91899991
2.70799994 0.79400003 3.91899991
3.54800010 0.79400003 3.45900011
3.73799992 0.824 3.38899994
3.36800003 0.73400003 3.84899998
2.75799990 0.80400002 3.44899988
4.28800011 0.77399999 3.74900007
3.06800008 0.80400002 3.33899999
2.60800004 0.044 3.80900002
4.05800009 0.80400002 3.76900005
3.70799994 0.77399999 3.70900011
2.99799991 0.764 3.98900008
3.16799998 0.75400001 3.97900009
3.47799993 0.77399999 3.61899996
3.04800010 0.79400003 3.60899997
2.56800008 0.574 3.99900007
2.55800009 0.124 4.06899977
3.53800011 0.74400002 3.74900007
3.41799998 0.79400003 3.38899994
2.81800008 0.78399998 3.9690001
3.07800007 0.77399999 3.83899999
3.26799989 0.79400003 3.47900009
2.87800002 0.79400003 3.43899989
3.34800005 0.77399999 3.66899991
2.80800009 0.79400003 3.81900001
2.55800009 0.34400001 3.91899991
3.68799996 0.78399998 3.6789999
3.17799997 0.78399998 3.77900004
3.43799996 0.74400002 3.72900009
4.14799976 0.30399999 3.75900006
3.29800010 0.77399999 3.66899991
3.69799995 0.764 3.73900008
2.58800006 0.81400001 3.65899992
3.58800006 0.78399998 3.60899997
4.07800007 0.47400001 3.76900005
2.87800002 0.78399998 3.39899993
3.65799999 0.77399999 3.69899988
2.56800008 0.71399999 4.04899979
4.29799986 0.72399998 3.78900003
4.15799999 0.28400001 3.75900006
3.16799998 0.79400003 3.4690001
2.68799996 0.824 3.58899999
3.23799992 0.764 3.77900004
3.41799998 0.79400003 3.36899996
4.07800007 0.324 3.75900006
3.39800000 0.75400001 3.7190001
2.55800009 0.264 3.91899991
3.84800005 0.77399999 3.76900005
4.17799997 0.324 3.75900006
2.56800008 0.514 4.02899981
2.90799999 0.79400003 3.47900009
3.25799990 0.764 3.78900003
4.15799999 0.39399999 3.76900005
2.79800010 0.73400003 4.04899979
3.07800007 0.75400001 4.00899982
2.75799990 0.79400003 3.85899997
4.04799986 0.34400001 3.75900006
2.69799995 0.79400003 3.93899989
2.56800008 0.43399999 4.04899979
3.47799993 0.73400003 3.78900003
3.63800001 0.79400003 3.49900007
3.68799996 0.77399999 3.70900011
3.95799994 0.484 3.77900004
3.32800007 0.78399998 3.64899993
4.29799986 0.74400002 3.54900002
3.47799993 0.74400002 3.70900011
3.98799992 0.49399999 3.76900005
4.14799976 0.80400002 3.76900005
3.18799996 0.75400001 3.9690001
3.90799999 0.80400002 3.61899996
2.74799991 0.80400002 3.79900002
2.95799994 0.79400003 3.6789999
3.91799998 0.74400002 3.77900004
2.99799991 0.81400001 3.34899998
4.12799978 0.36399999 3.75900006
3.29800010 0.78399998 3.33899999
3.91799998 0.80400002 3.65899992
3.22799993 0.74400002 3.98900008
2.87800002 0.79400003 3.40899992
3.23799992 0.79400003 3.51900005
2.52800012 0.81400001 3.85899997
3.19799995 0.78399998 3.40899992
2.89800000 0.79400003 3.72900009
2.55800009 0.36399999 3.95900011
3.86800003 0.81400001 3.50900006
3.86800003 0.81400001 3.45900011
2.93799996 0.79400003 3.64899993
3.46799994 0.79400003 3.51900005
3.72799993 0.78399998 3.63899994
4.20800018 0.79400003 3.76900005
3.43799996 0.79400003 3.41899991
3.38800001 0.73400003 3.829
3.12800002 0.79400003 3.59899998
3.63800001 0.75400001 3.74900007
4.26800013 0.79400003 3.7190001
2.55800009 0.244 3.98900008
3.71799994 0.72399998 3.77900004
3.89800000 0.58399999 3.75900006
3.85800004 0.79400003 3.62899995
3.30800009 0.74400002 3.89899993
4.10799980 0.77399999 3.77900004
3.19799995 0.79400003 3.63899994
2.99799991 0.764 3.97900009
3.89800000 0.324 3.63899994
3.78800011 0.764 3.77900004
3.46799994 0.79400003 3.38899994
3.26799989 0.75400001 3.87899995
3.34800005 0.79400003 3.45900011
3.01799989 0.79400003 3.40899992
2.89800000 0.79400003 3.70900011
3.83800006 0.704 3.73900008
4.05800009 0.40400001 3.75900006
3.42799997 0.79400003 3.36899996
2.92799997 0.79400003 3.579
3.40799999 0.72399998 3.85899997
3.36800003 0.79400003 3.329
2.80800009 0.79400003 3.45900011
3.43799996 0.72399998 3.84899998
2.92799997 0.78399998 3.80900002
3.19799995 0.80400002 3.31900001
3.88800001 0.49399999 3.70900011
2.94799995 0.73400003 4.03900003
2.73799992 0.79400003 3.9690001
3.55800009 0.79400003 3.35899997
4.22800016 0.75400001 3.77900004
3.98799992 0.71399999 3.77900004
3.90799999 0.59399998 3.77900004
3.89800000 0.61400002 3.73900008
3.89800000 0.77399999 3.76900005
3.66799998 0.77399999 3.68899989
3.50799990 0.764 3.65899992
3.91799998 0.79400003 3.68899989
3.22799993 0.764 3.829
3.24799991 0.764 3.81900001
2.55800009 0.114 4.02899981
3.45799994 0.78399998 3.58899999
2.88800001 0.79400003 3.61899996
4.05800009 0.43399999 3.75900006
3.13800001 0.80400002 3.52900004
2.85800004 0.73400003 4.03900003
4.18800020 0.73400003 3.78900003
3.67799997 0.77399999 3.69899988
4.25799990 0.79400003 3.69899988
3.62800002 0.78399998 3.59899998
4.32800007 0.80400002 3.51900005
3.49799991 0.77399999 3.60899997
3.91799998 0.80400002 3.64899993
3.41799998 0.79400003 3.4289999
2.56800008 0.324 3.98900008
3.73799992 0.80400002 3.43899989
3.54800010 0.74400002 3.73900008
3.24799991 0.79400003 3.579
2.93799996 0.79400003 3.45900011
2.56800008 0.124 3.83899999
4.22800016 0.634 3.78900003
4.07800007 0.67400002 3.77900004
4.08799982 0.44400001 3.76900005
2.90799999 0.81400001 3.36899996
3.40799999 0.78399998 3.56900001
2.88800001 0.78399998 3.38899994
3.29800010 0.79400003 3.40899992
3.79800010 0.74400002 3.77900004
2.87800002 0.79400003 3.4690001
2.77800012 0.74400002 4.04899979
3.11800003 0.79400003 3.72900009
3.98799992 0.72399998 3.77900004
3.44799995 0.72399998 3.85899997
4.16800022 0.79400003 3.76900005
3.33800006 0.79400003 3.55900002
3.16799998 0.764 3.93899989
3.04800010 0.77399999 3.85899997
3.11800003 0.80400002 3.47900009
3.70799994 0.81400001 3.38899994
2.54800010 0.80400002 3.94899988
3.35800004 0.73400003 3.87899995
3.91799998 0.46399999 3.77900004
3.72799993 0.78399998 3.60899997
2.78800011 0.80400002 3.7190001
3.38800001 0.764 3.66899991
3.63800001 0.75400001 3.75900006
4.27799988 0.78399998 3.75900006
3.53800011 0.75400001 3.68899989
4.19799995 0.80400002 3.75900006
3.82800007 0.80400002 3.53900003
3.80800009 0.80400002 3.53900003
3.02800012 0.79400003 3.62899995
2.95799994 0.764 4.00899982
2.59800005 0.80400002 3.73900008
3.69799995 0.75400001 3.78900003
3.26799989 0.78399998 3.34899998
3.89800000 0.764 3.76900005
3.24799991 0.80400002 3.30900002
4.30800009 0.75400001 3.75900006
2.66799998 0.79400003 3.97900009
4.16800022 0.75400001 3.77900004
2.89800000 0.79400003 3.65899992
2.97799993 0.79400003 3.53900003
2.62800002 0.80400002 3.9289999
2.56800008 0.47400001 3.97900009
4.18800020 0.454 3.76900005
2.89800000 0.80400002 3.35899997
3.45799994 0.73400003 3.80900002
4.21799994 0.73400003 3.78900003
3.50799990 0.78399998 3.58899999
2.80800009 0.80400002 3.72900009
3.09800005 0.78399998 3.75900006
2.53800011 0.204 4.06899977
2.52800012 0.40400001 4.06899977
3.99799991 0.81400001 3.69899988
3.41799998 0.74400002 3.73900008
2.84800005 0.764 4.00899982
2.89800000 0.79400003 3.73900008
3.01799989 0.80400002 3.34899998
4.09800005 0.81400001 3.75900006
4.18800020 0.634 3.77900004
3.84800005 0.81400001 3.45900011
3.21799994 0.74400002 3.99900007
2.92799997 0.79400003 3.41899991
4.35799980 0.72399998 3.40899992
4.10799980 0.78399998 3.76900005
4.21799994 0.80400002 3.75900006
3.06800008 0.81400001 3.35899997
2.90799999 0.77399999 3.93899989
3.35800004 0.80400002 3.31900001
3.51799989 0.78399998 3.60899997
3.81800008 0.824 3.43899989
2.55800009 0.22400001 3.98900008
2.58800006 0.80400002 3.89899993
3.72799993 0.77399999 3.7190001
3.13800001 0.79400003 3.65899992
3.58800006 0.79400003 3.53900003
2.55800009 0.34400001 3.89899993
3.94799995 0.71399999 3.77900004
2.53800011 0.52399999 4.06899977
3.61800003 0.80400002 3.36899996
3.30800009 0.74400002 3.84899998
3.96799994 0.62400001 3.76900005
4.24800014 0.80400002 3.63899994
3.88800001 0.454 3.70900011
2.56800008 0.42399999 4.02899981
3.90799999 0.414 3.62899995
2.97799993 0.79400003 3.74900007
2.93799996 0.79400003 3.35899997
2.93799996 0.77399999 3.90899992
4.06799984 0.484 3.76900005
3.06800008 0.80400002 3.4690001
2.56800008 0.62400001 4.01900005
3.51799989 0.79400003 3.35899997
4.14799976 0.574 3.77900004
2.73799992 0.81400001 3.68899989
2.61800003 0.73400003 4.03900003
4.34800005 0.71399999 3.43899989
3.19799995 0.75400001 3.9690001
3.95799994 0.40400001 3.77900004
2.80800009 0.79400003 3.77900004
2.56800008 0.44400001 4.04899979
2.84800005 0.79400003 3.47900009
2.55800009 0.234 3.95900011
3.00799990 0.79400003 3.66899991
4.24800014 0.79400003 3.76900005
4.18800020 0.80400002 3.75900006
4.02799988 0.42399999 3.75900006
3.20799994 0.79400003 3.61899996
3.90799999 0.46399999 3.77900004
2.55800009 0.154 4.00899982
3.82800007 0.81400001 3.44899988
4.16800022 0.74400002 3.78900003
4.13800001 0.68400002 3.77900004
2.82800007 0.79400003 3.66899991
2.92799997 0.79400003 3.61899996
3.90799999 0.47400001 3.76900005
2.76799989 0.80400002 3.78900003
2.91799998 0.79400003 3.50900006
4.24800014 0.72399998 3.78900003
3.47799993 0.79400003 3.53900003
4.08799982 0.72399998 3.77900004
2.52800012 0.68400002 4.05900002
2.97799993 0.77399999 3.9289999
2.81800008 0.79400003 3.81900001
2.89800000 0.75400001 4.04899979
2.55800009 0.184 4.02899981
4.28800011 0.764 3.68899989
3.88800001 0.55400002 3.72900009
3.59800005 0.73400003 3.81900001
3.44799995 0.72399998 3.829
3.44799995 0.74400002 3.72900009
4.09800005 0.40400001 3.75900006
2.97799993 0.78399998 3.84899998
2.52800012 0.79400003 3.98900008
3.45799994 0.79400003 3.52900004
2.56800008 0.54400003 3.98900008
3.35800004 0.764 3.7190001
3.20799994 0.79400003 3.579
2.56800008 0.414 4.03900003
2.98799992 0.79400003 3.40899992
3.38800001 0.79400003 3.53900003
3.84800005 0.78399998 3.65899992
3.86800003 0.79400003 3.65899992
3.22799993 0.80400002 3.30900002
3.16799998 0.79400003 3.47900009
3.61800003 0.73400003 3.81900001
2.86800003 0.79400003 3.74900007
3.41799998 0.75400001 3.68899989
3.60800004 0.80400002 3.37899995
3.55800009 0.79400003 3.43899989
2.76799989 0.80400002 3.4690001
3.35800004 0.79400003 3.50900006
2.91799998 0.79400003 3.68899989
3.93799996 0.28400001 3.76900005
3.38800001 0.73400003 3.81900001
3.70799994 0.764 3.74900007
3.34800005 0.79400003 3.31900001
3.36800003 0.79400003 3.31900001
4.17799997 0.53399998 3.77900004
2.72799993 0.75400001 4.01900005
3.20799994 0.79400003 3.64899993
3.15799999 0.75400001 4.00899982
2.55800009 0.154 4.03900003
3.05800009 0.73400003 4.05900002
3.94799995 0.42399999 3.77900004
3.60800004 0.79400003 3.53900003
3.49799991 0.77399999 3.62899995
3.17799997 0.764 3.87899995
4.17799997 0.44400001 3.76900005
3.10800004 0.764 3.91899991
3.39800000 0.79400003 3.51900005
2.91799998 0.81400001 3.36899996
2.56800008 0.064 3.97900009
2.84800005 0.78399998 3.85899997
3.19799995 0.78399998 3.36899996
3.17799997 0.77399999 3.81900001
3.07800007 0.77399999 3.89899993
3.68799996 0.78399998 3.62899995
2.56800008 0.56400001 4.00899982
3.47799993 0.72399998 3.829
4.18800020 0.81400001 3.25900006
2.54800010 0.56400001 4.05900002
3.31800008 0.79400003 3.579
3.18799996 0.79400003 3.31900001
2.62800002 0.81400001 3.68899989
2.54800010 0.79400003 3.75900006
3.93799996 0.78399998 3.77900004
2.96799994 0.77399999 3.93899989
2.78800011 0.80400002 3.63899994
2.85800004 0.79400003 3.40899992
2.97799993 0.73400003 4.03900003
3.77800012 0.77399999 3.72900009
3.64800000 0.77399999 3.69899988
4.17799997 0.42399999 3.76900005
3.87800002 0.79400003 3.65899992
2.98799992 0.77399999 3.93899989
2.85800004 0.79400003 3.61899996
2.55800009 0.37400001 3.95900011
3.16799998 0.79400003 3.65899992
3.53800011 0.73400003 3.78900003
2.89800000 0.79400003 3.37899995
3.64800000 0.74400002 3.78900003
3.52800012 0.74400002 3.74900007
3.31800008 0.75400001 3.78900003
2.93799996 0.77399999 3.97900009
3.75799990 0.79400003 3.55900002
2.89800000 0.79400003 3.36899996
2.88800001 0.74400002 4.03900003
3.07800007 0.74400002 4.03900003
2.82800007 0.78399998 3.9289999
3.32800007 0.75400001 3.78900003
4.34800005 0.79400003 3.39899993
2.55800009 0.14399999 3.829
2.56800008 0.54400003 4.02899981
2.69799995 0.81400001 3.73900008
3.44799995 0.79400003 3.4690001
4.34800005 0.74400002 3.41899991
2.95799994 0.77399999 3.93899989
3.03800011 0.764 3.94899988
3.75799990 0.78399998 3.6789999
2.56800008 0.54400003 4.05900002
2.58800006 0.054 3.84899998
4.15799999 0.27399999 3.75900006
4.09800005 0.79400003 3.76900005
3.66799998 0.71399999 3.77900004
4.08799982 0.64399999 3.77900004
3.52800012 0.79400003 3.45900011
4.12799978 0.50400001 3.76900005
2.55800009 0.094 4.02899981
3.00799990 0.79400003 3.41899991
4.24800014 0.704 3.78900003
3.21799994 0.75400001 3.9690001
2.82800007 0.75400001 4.04899979
3.51799989 0.71399999 3.829
3.75799990 0.79400003 3.52900004
2.55800009 0.294 3.93899989
3.03800011 0.79400003 3.68899989
2.80800009 0.79400003 3.48900008
2.66799998 0.764 4.00899982
3.63800001 0.79400003 3.48900008
3.75799990 0.79400003 3.58899999
2.56800008 0.044 3.98900008
4.11800003 0.80400002 3.76900005
4.03800011 0.60399997 3.77900004
2.54800010 0.81400001 3.85899997
3.93799996 0.81400001 3.59899998
4.14799976 0.79400003 3.76900005
2.72799993 0.79400003 3.88899994
3.07800007 0.764 3.9289999
3.51799989 0.764 3.64899993
3.24799991 0.81400001 3.29900002
3.42799997 0.764 3.64899993
2.84800005 0.74400002 4.04899979
4.18800020 0.574 3.77900004
3.58800006 0.72399998 3.81900001
3.88800001 0.384 3.66899991
2.86800003 0.81400001 3.49900007
4.13800001 0.47400001 3.76900005
3.39800000 0.74400002 3.76900005
3.85800004 0.81400001 3.41899991
4.00799990 0.67400002 3.77900004
3.54800010 0.80400002 3.30900002
3.95799994 0.79400003 3.75900006
2.56800008 0.124 3.85899997
2.66799998 0.81400001 3.72900009
3.15799999 0.75400001 3.97900009
4.04799986 0.56400001 3.76900005
3.58800006 0.79400003 3.56900001
2.62800002 0.71399999 4.05900002
3.23799992 0.764 3.80900002
3.11800003 0.80400002 3.39899993
3.56800008 0.79400003 3.39899993
2.55800009 0.53399998 4.05900002
3.90799999 0.454 3.77900004
3.13800001 0.80400002 3.41899991
3.08800006 0.79400003 3.70900011
2.91799998 0.79400003 3.55900002
3.61800003 0.78399998 3.60899997
4.31799984 0.73400003 3.7190001
2.67799997 0.80400002 3.78900003
2.81800008 0.78399998 3.89899993
2.54800010 0.22400001 3.86899996
3.36800003 0.79400003 3.33899999
3.07800007 0.79400003 3.54900002
2.54800010 0.264 3.89899993
4.02799988 0.79400003 3.76900005
3.45799994 0.74400002 3.72900009
3.23799992 0.764 3.81900001
4.13800001 0.79400003 3.76900005
2.87800002 0.78399998 3.89899993
2.93799996 0.78399998 3.84899998
2.75799990 0.81400001 3.55900002
3.47799993 0.81400001 3.30900002
2.56800008 0.49399999 3.93899989
2.88800001 0.77399999 3.95900011
2.55800009 0.204 3.94899988
3.90799999 0.71399999 3.77900004
3.92799997 0.58399999 3.77900004
3.87800002 0.68400002 3.73900008
3.78800011 0.79400003 3.59899998
2.77800012 0.78399998 3.97900009
4.07800007 0.354 3.75900006
3.42799997 0.764 3.65899992
3.48799992 0.79400003 3.44899988
2.56800008 0.39399999 3.99900007
3.15799999 0.764 3.9289999
4.09800005 0.77399999 3.77900004
2.85800004 0.78399998 3.9690001
4.21799994 0.67400002 3.78900003
3.28800011 0.79400003 3.61899996
3.23799992 0.764 3.78900003
2.53800011 0.81400001 3.85899997
3.84800005 0.80400002 3.54900002
3.47799993 0.79400003 3.41899991
2.56800008 0.33399999 4.00899982
2.55800009 0.104 3.9289999
3.10800004 0.79400003 3.61899996
4.29799986 0.75400001 3.63899994
2.88800001 0.79400003 3.64899993
3.89800000 0.81400001 3.53900003
3.23799992 0.79400003 3.59899998
3.68799996 0.72399998 3.78900003
3.07800007 0.77399999 3.87899995
3.70799994 0.80400002 3.45900011
3.48799992 0.764 3.64899993
3.29800010 0.79400003 3.54900002
3.57800007 0.79400003 3.36899996
3.01799989 0.75400001 4.03900003
2.56800008 0.42399999 4.00899982
3.41799998 0.80400002 3.31900001
2.76799989 0.81400001 3.7190001
3.35800004 0.764 3.68899989
2.90799999 0.764 4.00899982
2.54800010 0.80400002 3.69899988
4.19799995 0.80400002 3.26900005
3.01799989 0.79400003 3.53900003
2.59800005 0.78399998 3.86899996
4.25799990 0.75400001 3.77900004
2.55800009 0.62400001 4.05900002
3.61800003 0.81400001 3.329
3.89800000 0.77399999 3.77900004
3.85800004 0.80400002 3.52900004
3.39800000 0.79400003 3.49900007
3.44799995 0.79400003 3.53900003
3.24799991 0.78399998 3.39899993
2.96799994 0.75400001 4.03900003
3.62800002 0.79400003 3.53900003
3.07800007 0.79400003 3.53900003
4.28800011 0.81400001 3.58899999
3.00799990 0.764 3.98900008
2.55800009 0.50400001 3.9289999
3.22799993 0.79400003 3.41899991
3.20799994 0.79400003 3.4690001
2.59800005 0.71399999 4.05900002
2.56800008 0.124 3.79900002
2.91799998 0.78399998 3.89899993
2.55800009 0.25400001 3.93899989
2.56800008 0.264 4.03900003
3.28800011 0.764 3.73900008
3.08800006 0.80400002 3.38899994
3.48799992 0.79400003 3.37899995
3.12800002 0.80400002 3.53900003
3.85800004 0.78399998 3.66899991
2.53800011 0.514 4.06899977
2.95799994 0.80400002 3.34899998
2.68799996 0.80400002 3.78900003
3.10800004 0.78399998 3.75900006
3.70799994 0.764 3.73900008
2.63800001 0.72399998 4.04899979
2.67799997 0.79400003 3.84899998
3.52800012 0.79400003 3.36899996
3.20799994 0.78399998 3.72900009
4.35799980 0.75400001 3.35899997
4.35799980 0.74400002 3.37899995
4.34800005 0.75400001 3.45900011
3.50799990 0.75400001 3.6789999
2.84800005 0.72399998 4.04899979
2.57800007 0.78399998 3.98900008
3.67799997 0.73400003 3.79900002
2.55800009 0.47400001 4.06899977
2.55800009 0.454 4.06899977
2.98799992 0.78399998 3.83899999
2.95799994 0.77399999 3.91899991
4.33799982 0.77399999 3.47900009
3.94799995 0.824 3.58899999
3.06800008 0.80400002 3.44899988
3.30800009 0.79400003 3.579
4.27799988 0.80400002 3.58899999
2.56800008 0.094 3.83899999
2.89800000 0.764 4.00899982
3.54800010 0.79400003 3.36899996
3.18799996 0.79400003 3.62899995
3.37800002 0.73400003 3.83899999
3.17799997 0.77399999 3.85899997
2.94799995 0.81400001 3.45900011
2.54800010 0.79400003 3.69899988
3.05800009 0.764 3.98900008
4.10799980 0.40400001 3.75900006
3.06800008 0.78399998 3.81900001
3.10800004 0.77399999 3.829
3.00799990 0.764 4.01900005
2.55800009 0.80400002 3.88899994
3.65799999 0.75400001 3.74900007
4.35799980 0.81400001 3.30900002
3.97799993 0.764 3.77900004
2.87800002 0.78399998 3.829
3.90799999 0.77399999 3.77900004
4.34800005 0.764 3.45900011
2.57800007 0.80400002 3.72900009
3.00799990 0.79400003 3.63899994
3.03800011 0.764 3.9690001
2.87800002 0.73400003 4.03900003
2.96799994 0.79400003 3.51900005
3.08800006 0.79400003 3.66899991
3.17799997 0.75400001 3.99900007
2.98799992 0.81400001 3.34899998
2.56800008 0.054 3.99900007
3.62800002 0.79400003 3.43899989
3.37800002 0.75400001 3.74900007
3.22799993 0.79400003 3.47900009
3.82800007 0.78399998 3.70900011
3.17799997 0.79400003 3.56900001
2.54800010 0.354 3.86899996
2.52800012 0.36399999 4.06899977
3.63800001 0.79400003 3.52900004
2.64800000 0.79400003 3.87899995
3.14800000 0.764 3.9289999
4.24800014 0.66399997 3.78900003
2.57800007 0.054 3.86899996
3.63800001 0.79400003 3.579
3.87800002 0.454 3.69899988
4.17799997 0.69400001 3.78900003
3.15799999 0.78399998 3.75900006
3.57800007 0.80400002 3.35899997
3.00799990 0.79400003 3.72900009
2.56800008 0.37400001 4.03900003
4.00799990 0.454 3.76900005
2.86800003 0.79400003 3.53900003
3.64800000 0.77399999 3.68899989
2.81800008 0.74400002 4.02899981
4.35799980 0.71399999 3.40899992
3.12800002 0.77399999 3.85899997
2.93799996 0.80400002 3.35899997
3.57800007 0.72399998 3.829
3.68799996 0.80400002 3.40899992
3.66799998 0.75400001 3.76900005
3.16799998 0.77399999 3.86899996
3.04800010 0.81400001 3.34899998
4.07800007 0.77399999 3.77900004
2.56800008 0.074 3.9289999
2.97799993 0.77399999 3.93899989
3.69799995 0.78399998 3.53900003
3.62800002 0.80400002 3.37899995
2.75799990 0.77399999 4.00899982
2.56800008 0.46399999 3.99900007
2.56800008 0.054 3.94899988
4.07800007 0.33399999 3.75900006
3.49799991 0.75400001 3.6789999
4.19799995 0.37400001 3.76900005
3.73799992 0.78399998 3.66899991
3.96799994 0.59399998 3.76900005
2.96799994 0.81400001 3.4289999
3.92799997 0.824 3.56900001
2.82800007 0.79400003 3.64899993
3.84800005 0.704 3.72900009
3.04800010 0.79400003 3.72900009
2.56800008 0.71399999 4.05900002
3.00799990 0.78399998 3.83899999
3.13800001 0.764 3.90899992
2.55800009 0.354 3.94899988
3.57800007 0.74400002 3.76900005
2.86800003 0.79400003 3.7190001
3.44799995 0.73400003 3.81900001
2.83800006 0.79400003 3.49900007
2.57800007 0.104 3.79900002
3.71799994 0.78399998 3.60899997
3.28800011 0.74400002 3.86899996
3.51799989 0.79400003 3.49900007
3.50799990 0.79400003 3.36899996
2.55800009 0.14399999 3.89899993
4.16800022 0.39399999 3.76900005
2.97799993 0.79400003 3.35899997
3.91799998 0.50400001 3.77900004
3.15799999 0.79400003 3.61899996
2.97799993 0.79400003 3.6789999
2.83800006 0.79400003 3.48900008
2.83800006 0.79400003 3.76900005
4.04799986 0.414 3.75900006
3.29800010 0.74400002 3.88899994
2.98799992 0.81400001 3.35899997
3.00799990 0.79400003 3.64899993
3.98799992 0.384 3.76900005
4.28800011 0.74400002 3.77900004
3.28800011 0.78399998 3.329
3.88800001 0.414 3.66899991
3.66799998 0.79400003 3.48900008
2.89800000 0.77399999 4.00899982
3.53800011 0.79400003 3.53900003
3.28800011 0.79400003 3.31900001
2.55800009 0.17399999 4.06899977
2.55800009 0.79400003 3.73900008
2.53800011 0.094 4.06899977
3.15799999 0.764 3.91899991
3.61800003 0.79400003 3.56900001
3.96799994 0.69400001 3.77900004
4.01800013 0.294 3.75900006
3.52800012 0.79400003 3.37899995
2.70799994 0.79400003 3.88899994
4.03800011 0.354 3.75900006
4.08799982 0.634 3.77900004
2.55800009 0.80400002 3.91899991
3.57800007 0.77399999 3.63899994
2.72799993 0.71399999 4.05900002
4.16800022 0.454 3.76900005
2.54800010 0.124 4.079
3.70799994 0.79400003 3.48900008
3.20799994 0.77399999 3.74900007
3.17799997 0.75400001 3.94899988
3.06800008 0.79400003 3.61899996
3.89800000 0.78399998 3.76900005
3.12800002 0.78399998 3.78900003
4.07800007 0.42399999 3.75900006
3.26799989 0.75400001 3.79900002
3.01799989 0.74400002 4.03900003
2.95799994 0.79400003 3.53900003
4.04799986 0.39399999 3.75900006
2.80800009 0.79400003 3.7190001
2.52800012 0.78399998 3.76900005
2.62800002 0.81400001 3.73900008
2.58800006 0.79400003 3.98900008
4.22800016 0.73400003 3.78900003
4.12799978 0.60399997 3.77900004
3.79800010 0.80400002 3.51900005
2.80800009 0.78399998 3.91899991
3.90799999 0.78399998 3.73900008
4.04799986 0.49399999 3.76900005
2.52800012 0.154 4.06899977
3.40799999 0.764 3.68899989
2.72799993 0.824 3.60899997
3.29800010 0.764 3.73900008
2.72799993 0.824 3.6789999
3.57800007 0.764 3.69899988
3.97799993 0.80400002 3.74900007
3.25799990 0.75400001 3.829
3.12800002 0.75400001 4.02899981
2.79800010 0.80400002 3.6789999
2.55800009 0.704 4.05900002
2.55800009 0.154 3.84899998
